12.0000     0.0000     0.0000    28.0000    34.0000    22.0000    12.0000    18.7000    12.0000    13.0000    64.5000   150.0000     0.0000     0.0000     0.0000     0.0000     0.0000     0.0000    13.5000    12.0000    15.4286    12.0000     0.0000     0.0000     0.0000     0.0000     0.0000     0.0000     0.0000     0.0000    40.0000    78.0000    69.0000    44.0000     0.0000     0.0000     0.0000     0.0000     0.0000     0.0000     0.0000     0.0000     0.0000     0.0000     0.0000     0.0000     0.0000     0.0000     0.0000     0.0000     0.0000     0.0000     0.0000     0.0000     0.0000     0.0000     0.0000     0.0000     0.0000     0.0000     0.0000     0.0000     0.0000     0.0000     0.0000     0.0000     0.0000     0.0000     0.0000     0.0000     0.0000     0.0000     0.0000     0.0000     0.0000     0.0000     0.0000     0.0000     0.0000     0.0000     0.0000     0.0000    17.0000   157.0000   106.0000   192.0000   184.0000   243.7213   209.8220   200.0000   123.5000    86.5000   126.0000   126.5000   106.5000   107.0000    85.0000   176.0000   323.0130   446.9528   501.6176   491.6747   451.7591   395.2261   330.1717   265.1840   182.0000   132.5000    87.0000     0.0000     0.0000     0.0000     0.0000     0.0000     0.0000     0.0000   108.5000   122.5000    31.0000     0.0000     0.0000    26.0000    60.0000     0.0000     0.0000     0.0000     0.0000    12.0000    69.5000   183.0000   299.2172   389.6458   409.9340   400.9258   384.5048   350.0044   260.5568    61.0000    31.5000    35.0000    38.5000     0.0000     0.0000    53.0000   189.0000     0.0000     0.0000     0.0000     0.0000     0.0000   123.0000   354.4851   442.3068   477.9998   500.5276   522.7346   539.4286   544.3408   542.8465   542.1787   544.8505   551.7758   561.1621   566.1594   565.4940   567.8497   599.1448   713.0928   939.8821  1181.4727  1376.7258  1564.1415  1784.1055  2004.7390  2204.6770  2333.0405  2400.6321  2472.9363  2563.7917  2650.4370  2741.7725  2824.1604  2895.0540  2961.1541  3015.3513  3060.6016  3095.9399  3119.9778  3132.7437  3119.1167  3047.7827  2963.3259  2993.2478  3024.0186  3006.6753  2951.8960  2848.5171  2724.0408  2648.8369  2609.3560  2510.5186  2341.5242  2181.8032  2090.5942  2024.6011  1873.5225  1681.1949  1662.5054  1812.9598  1905.7531  1817.1832  1629.1400  1443.4890  1318.9084  1275.9956  1304.0190  1308.2219  1401.2518  1727.4492  2091.4165  2247.5039  2055.8293  1621.6006  1386.3682  1449.2595  1569.4343  1713.4290  1966.9259  2230.2236  2407.1284  2528.7874  2572.2078  2602.3865  2729.2681  2873.2798  2934.3704  2950.8735  2982.7036  3043.7671  3153.2786  3326.0830  3493.4946  3613.8293  3677.4329  3656.7361  3604.9419  3740.9097  3865.6892  3891.2844  3789.2383  3388.5820  2611.8337  1840.2667  1763.3134  2200.5342  2631.4978  2844.8254  3036.9985  3260.3103  3448.0254  3654.0486  3884.1584  4056.9131  4189.6787  4262.0518  4266.3726  4261.2476  4267.4482  4271.7837  4272.6953  4280.5317
12.0000    12.0000    13.0000    30.0000    29.0000    27.0000    28.0000    13.0000    47.0000    98.0000   131.0000   197.9411    42.5000     0.0000     0.0000     0.0000     0.0000    12.0000    12.0000    12.0000    42.0000    26.5000     0.0000     0.0000     0.0000     0.0000     0.0000     0.0000     0.0000     0.0000    44.0000    75.0000    64.0000    59.0000     0.0000     0.0000     0.0000     0.0000     0.0000     0.0000     0.0000     0.0000     0.0000     0.0000     0.0000     0.0000     0.0000     0.0000     0.0000     0.0000     0.0000     0.0000     0.0000     0.0000     0.0000     0.0000     0.0000     0.0000     0.0000     0.0000     0.0000     0.0000     0.0000     0.0000     0.0000     0.0000     0.0000     0.0000     0.0000     0.0000     0.0000     0.0000     0.0000     0.0000     0.0000     0.0000     0.0000     0.0000     0.0000     0.0000     0.0000     0.0000    12.0000    28.5000    22.0000    77.0000   148.0000   242.3489   221.7485   200.9996   140.0000    41.0000   108.0000   116.5000    84.5000   103.0000   111.0000   188.5000   331.4671   453.5713   504.2521   496.9312   458.4090   400.6172   335.8796   261.3895   166.0000   153.0000    43.0000     0.0000     0.0000     0.0000     0.0000     0.0000     0.0000     0.0000    88.0000   130.0000   129.0000     0.0000    24.5000   113.0000   191.5000     0.0000     0.0000     0.0000    19.0000    99.0000   152.5000   266.2650   357.0070   399.5622   381.3367   370.9538   352.0029   300.0401   164.5000     0.0000     0.0000     0.0000     0.0000     0.0000     0.0000    34.0000   146.0000    19.0000     0.0000     0.0000     0.0000     0.0000    29.0000   276.9561   401.9887   464.4746   499.4553   526.0667   540.4507   541.0983   539.8151   543.5075   548.2238   553.9567   563.1960   571.2354   577.6042   597.9797   675.0607   843.8346  1064.5358  1286.1949  1467.0568  1648.8845  1879.1537  2101.2141  2271.5549  2371.5637  2434.3748  2517.1309  2615.6287  2702.1228  2786.9897  2861.5361  2927.6755  2986.4509  3038.7524  3083.7087  3118.0059  3141.3069  3154.5410  3151.5515  3125.7769  3101.9512  3104.0208  3087.2729  3029.3142  2943.7405  2842.8093  2779.9419  2749.0667  2708.2678  2589.1106  2394.2473  2214.8723  2164.1006  2158.9155  1990.7252  1734.6387  1710.1235  1850.5410  1927.1105  1839.9437  1693.9999  1546.9802  1405.2173  1282.3875  1263.0205  1267.1328  1318.0763  1552.7618  1976.5931  2273.2083  2249.4387  1959.4076  1592.9138  1484.8164  1564.5189  1695.9855  1885.9828  2107.6670  2290.7441  2425.6460  2516.5549  2616.0881  2742.5139  2860.8618  2938.9207  2989.9187  3041.1172  3108.4685  3188.7109  3293.6990  3406.4797  3542.0391  3658.5767  3676.6277  3633.6858  3663.0417  3817.4514  3901.7451  3891.9373  3747.1150  3264.0312  2351.7202  1800.5270  1912.4763  2296.8499  2495.5913  2499.2661  2477.9971  2502.2297  2703.7698  3113.1760  3502.9519  3848.6572  4073.8845  4165.8096  4231.7607  4276.8232  4287.1328  4286.2534  4290.0752
12.0000    12.0000    12.0000    25.0000    12.0000    22.5000    90.0000    88.5000    89.0000   100.0000    57.0000    69.0000    35.0000    70.0000     0.0000     0.0000     0.0000    20.0000    12.0000    34.5000    87.0000    27.0000     0.0000     0.0000     0.0000     0.0000     0.0000     0.0000     0.0000     0.0000    46.0000    88.0000    84.5000    73.0000     0.0000     0.0000     0.0000     0.0000     0.0000     0.0000     0.0000     0.0000     0.0000     0.0000     0.0000     0.0000     0.0000     0.0000     0.0000     0.0000     0.0000     0.0000     0.0000     0.0000     0.0000     0.0000     0.0000     0.0000     0.0000     0.0000     0.0000     0.0000     0.0000     0.0000     0.0000     0.0000     0.0000     0.0000     0.0000     0.0000     0.0000     0.0000     0.0000     0.0000     0.0000     0.0000     0.0000     0.0000     0.0000     0.0000     0.0000     0.0000     0.0000     0.0000    12.0000    43.0000   159.5000   239.5118   254.8809   234.2232   203.2402    93.5000   105.0000   113.0000    94.0000   108.0000   107.0000   176.0000   327.5716   453.3539   503.6145   499.5674   463.2316   402.8215   336.6537   256.3368   167.5000   121.0000     0.0000     0.0000     0.0000     0.0000     0.0000     0.0000     0.0000     0.0000    49.5000   139.0000   156.5000   109.0000   138.0000   147.0000   213.5885    48.5000     0.0000     0.0000    74.0000   141.5000   239.4013   310.7856   383.3448   401.2146   375.3323   372.0070   345.7268   257.6054    37.0000     0.0000     0.0000     0.0000     0.0000     0.0000     0.0000    37.0000   194.0000    29.5000     0.0000     0.0000     0.0000    25.0000   130.5000   218.0036   361.5324   447.9828   502.5667   532.3870   541.0231   535.2971   531.8758   538.9865   550.4109   559.6315   567.9290   576.9179   599.8981   665.7739   807.8982  1007.4097  1217.7234  1398.1082  1547.2921  1719.0608  1937.8248  2159.4966  2316.2776  2403.5054  2474.9900  2565.7764  2660.6311  2742.4307  2814.3013  2879.5034  2945.6172  3002.0615  3051.2102  3096.3997  3133.6963  3159.9790  3175.1191  3179.0977  3174.9597  3172.7346  3174.5139  3150.2158  3074.2739  2968.4622  2869.8127  2826.0420  2805.5376  2769.9985  2654.8992  2441.4641  2245.1057  2225.5332  2277.7881  2119.7239  1842.4440  1811.0997  1917.6635  1966.5612  1899.0027  1791.7375  1656.8405  1478.1467  1265.9044  1219.4919  1264.7439  1302.1816  1397.4769  1757.7810  2164.9163  2297.6702  2198.7642  1874.7094  1641.0090  1658.5723  1783.9471  1914.6038  2037.4810  2163.8726  2280.4553  2405.8335  2554.3145  2690.3259  2797.6604  2892.3928  2977.3816  3056.6921  3136.6545  3206.6731  3263.6562  3321.9382  3435.5442  3605.0913  3675.6133  3663.8933  3643.0757  3764.4006  3883.3411  3894.3093  3821.1594  3613.2810  2979.5547  2081.9314  1826.1278  2172.4927  2464.8062  2480.1160  2303.5364  2127.2590  2010.0126  2122.1931  2544.3547  3045.3657  3486.0171  3833.0674  4094.2493  4239.0708  4282.8599  4292.6841  4289.1406
12.0000    12.0000    12.0000    12.0000    12.0000    17.0000    34.0000    76.0000    50.0000    12.0000    36.6875    12.0000    12.0000    37.9000    32.5000    54.0000    12.0000    12.0000     0.0000    39.5000   105.5000    41.0000     0.0000     0.0000     0.0000     0.0000     0.0000     0.0000     0.0000     0.0000    53.5000   112.0000   104.0000    91.5000     0.0000     0.0000     0.0000     0.0000     0.0000     0.0000     0.0000     0.0000     0.0000     0.0000     0.0000     0.0000     0.0000     0.0000     0.0000     0.0000     0.0000     0.0000     0.0000     0.0000     0.0000     0.0000     0.0000     0.0000     0.0000     0.0000     0.0000     0.0000     0.0000     0.0000     0.0000     0.0000     0.0000     0.0000     0.0000     0.0000     0.0000     0.0000     0.0000     0.0000     0.0000     0.0000     0.0000     0.0000     0.0000     0.0000     0.0000     0.0000     0.0000     0.0000     0.0000    68.5000   182.0000   233.4816   266.9106   264.1889   231.4819   149.0000   115.0000   112.0000   106.0000   108.0000   102.0000   177.0000   331.0237   456.5607   503.4618   500.1256   463.9044   402.0358   332.1605   242.6390   156.5000    76.0000     0.0000     0.0000     0.0000     0.0000     0.0000     0.0000     0.0000     0.0000    29.0000   185.0000   213.7931   184.0000   199.0000   216.1984   236.0331   214.4173    67.0000    22.0000    73.0000   175.0000   265.0104   341.5591   411.3527   419.2149   394.8947   379.8012   334.9732   207.2923     0.0000     0.0000     0.0000     0.0000     0.0000     0.0000     0.0000    64.0000   203.0874    22.0000     0.0000     0.0000    17.0000   171.0000   209.6763   225.5182   308.4899   418.3698   500.1067   537.0995   544.8361   537.4398   530.8604   537.4045   552.9580   566.5343   577.0593   594.0482   652.1921   777.5134   959.3547  1185.4490  1425.3168  1559.2466  1669.9703  1835.1473  2030.7958  2218.3286  2354.9053  2435.9734  2514.3740  2610.8618  2699.9136  2771.1865  2824.0588  2878.5767  2952.6018  3014.6421  3062.0979  3108.8267  3150.8657  3179.9534  3195.2537  3200.5591  3201.8975  3202.7983  3202.9307  3186.4216  3125.2683  3023.0974  2935.7727  2874.3425  2831.5547  2792.8220  2686.4414  2477.3499  2305.1868  2323.6604  2395.5569  2272.2429  2072.2278  2041.3654  2044.4679  2037.9585  1990.8385  1904.2211  1746.1332  1494.6299  1239.3131  1209.5542  1331.9846  1384.1638  1358.7510  1549.9285  1951.2980  2221.3350  2266.7974  2097.8125  1912.1189  1859.2888  1911.6245  1994.7351  2066.3184  2150.6108  2218.4062  2308.9492  2475.4846  2611.0288  2705.1702  2824.4998  2953.8103  3057.1235  3138.6602  3203.9392  3250.0527  3305.5933  3422.5234  3578.1372  3661.8943  3669.4893  3632.8271  3705.1038  3851.1284  3888.3792  3855.5979  3805.3948  3457.0598  2546.9719  1825.1776  1913.2694  2278.7991  2495.1123  2501.4783  2330.3245  1981.9532  1699.4980  1801.4414  2099.7866  2564.1489  3254.3394  3740.9495  4027.8682  4159.5073  4192.9097  4179.8545
12.0000    12.0000    12.0000    12.0000     0.0000     0.0000     0.0000     0.0000    53.0000    35.0000    17.0000    12.0000     0.0000     0.0000    49.0000   201.0410    70.5000    24.0000     0.0000    65.0000   100.0000    24.0000     0.0000     0.0000     0.0000     0.0000     0.0000     0.0000     0.0000    23.5000   109.0000   124.0000   107.0000    58.5000     0.0000     0.0000     0.0000     0.0000     0.0000     0.0000     0.0000     0.0000     0.0000     0.0000     0.0000     0.0000     0.0000     0.0000     0.0000     0.0000     0.0000     0.0000     0.0000     0.0000     0.0000     0.0000     0.0000     0.0000     0.0000     0.0000     0.0000     0.0000     0.0000     0.0000     0.0000     0.0000     0.0000     0.0000     0.0000     0.0000     0.0000     0.0000     0.0000     0.0000     0.0000     0.0000     0.0000     0.0000     0.0000     0.0000     0.0000     0.0000     0.0000     0.0000     0.0000     0.0000    43.0000   222.0363   262.0813   273.5133   256.3583   183.0000   128.0000   120.0000   119.0000   115.0000   116.5000   181.0000   334.1893   458.4717   502.8240   499.6630   463.5874   401.1650   324.4017   206.9978   125.0000    57.0000     0.0000     0.0000     0.0000     0.0000     0.0000     0.0000     0.0000     0.0000    25.0000   169.5000   222.9707   230.9086   201.0880   216.2657   227.6288   245.8369   233.8117   197.5000   165.0000   256.0638   333.2171   382.3253   432.2358   437.2659   413.6838   375.8203   290.3756    70.0000     0.0000     0.0000     0.0000     0.0000     0.0000     0.0000     0.0000    85.5000   205.2235    57.0000     0.0000     0.0000    12.0000    35.0000    77.0000   134.5000   219.8528   370.6280   474.2484   529.8973   544.7729   541.6912   535.6832   540.1684   555.6590   572.1956   589.2143   632.0899   743.0329   898.2598  1068.3802  1313.4285  1568.1591  1720.6151  1829.7034  1967.2223  2135.6594  2299.6360  2407.1064  2474.8711  2551.9146  2645.5986  2730.2505  2789.5833  2821.0166  2857.9863  2937.3643  3015.5449  3066.4614  3121.2827  3170.5322  3199.3435  3211.7839  3215.9233  3216.7402  3215.7781  3212.9827  3202.8582  3165.2656  3091.5991  3018.1353  2922.2722  2842.0283  2787.2231  2682.6724  2522.0952  2444.5291  2511.6187  2550.3965  2453.8142  2351.1621  2271.2078  2186.2639  2144.5146  2105.7170  2015.6641  1816.6654  1489.1262  1235.0627  1232.3556  1425.0142  1517.1035  1456.7594  1518.5679  1747.1718  2004.8438  2135.0564  2132.5613  2101.8003  2069.7617  2017.6300  2019.9308  2118.9778  2242.5393  2309.2683  2366.1277  2467.3611  2570.1492  2674.9402  2829.1558  2972.0208  3065.6729  3124.9951  3166.8203  3193.5444  3256.9746  3401.8828  3553.1987  3646.4297  3657.8357  3601.9712  3624.6516  3790.6150  3890.9773  3891.9192  3865.9448  3674.6484  3006.7375  2136.5461  1770.3062  1935.6892  2238.7173  2450.3433  2540.8237  2394.5708  2048.6106  1728.4001  1565.1960  1798.5028  2535.6731  3172.7048  3589.3652  3790.1121  3839.2454  3858.4875
12.0000    12.0000    12.0000    12.0000     0.0000     0.0000     0.0000     0.0000     0.0000    31.5000    49.0000    12.0000    22.0000    42.0000   104.0000   209.0802   170.0000   114.0000    16.5000    20.0000    13.5000    12.0000    12.0000    12.0000     0.0000     0.0000     0.0000     0.0000    41.5000    75.0000   123.5000   123.5000    83.0000     0.0000     0.0000     0.0000     0.0000     0.0000     0.0000     0.0000     0.0000     0.0000     0.0000     0.0000     0.0000     0.0000     0.0000     0.0000     0.0000     0.0000     0.0000     0.0000     0.0000     0.0000     0.0000     0.0000     0.0000     0.0000     0.0000     0.0000     0.0000     0.0000     0.0000     0.0000     0.0000     0.0000     0.0000     0.0000     0.0000     0.0000     0.0000     0.0000     0.0000     0.0000     0.0000     0.0000     0.0000     0.0000     0.0000     0.0000     0.0000     0.0000     0.0000     0.0000     0.0000     0.0000     0.0000   133.0000   232.9982   254.8751   260.8382   222.5548   155.0000   129.0000   129.0000   124.0000   127.5000   172.0000   336.5699   459.5592   501.1189   497.8142   461.6965   399.6562   314.9317   182.0000    73.0000    14.0000     0.0000     0.0000     0.0000     0.0000     0.0000     0.0000     0.0000     0.0000    29.5000    93.0000   209.3853   222.6603   209.0719   198.5000   189.0000   228.5361   264.9195   270.9979   275.9779   305.3208   352.4569   387.8326   434.3776   445.2793   424.3416   377.0797   259.9978    21.0000     0.0000     0.0000     0.0000     0.0000     0.0000     0.0000     0.0000    97.0000   202.0094    94.0000     0.0000     0.0000    12.0000    33.0000    73.0000   116.0000   184.0000   333.0833   441.5326   515.6638   542.3026   547.2018   545.0367   548.4968   562.1454   580.9100   610.5026   691.1349   848.8820   992.5203  1129.4258  1377.9711  1615.2748  1800.7812  1971.8510  2110.0981  2244.1160  2371.6091  2452.7966  2518.3584  2595.8904  2677.4226  2751.3308  2797.7837  2813.2446  2828.1248  2900.9001  3003.6387  3061.8284  3135.2209  3192.9417  3218.1619  3226.7200  3229.5181  3229.4836  3226.6399  3220.6204  3210.2114  3191.1062  3161.8096  3101.2122  2958.7573  2841.5103  2776.2217  2687.8105  2614.7356  2643.8643  2701.5806  2667.2930  2540.5200  2430.8000  2340.6948  2277.2922  2253.9031  2221.1836  2111.3965  1877.5585  1520.8381  1274.2802  1311.1326  1554.5887  1660.7200  1610.1124  1606.8900  1633.3348  1705.7620  1824.5566  1991.6160  2134.5735  2156.6355  2036.4307  1970.6882  2148.4587  2336.6826  2423.0488  2461.5720  2489.4016  2561.3350  2696.6611  2871.4597  3000.0339  3068.6038  3096.8154  3100.0063  3081.0310  3111.6169  3279.9082  3462.6897  3562.9944  3596.4692  3586.9688  3587.2344  3659.7971  3803.3792  3867.4734  3862.7224  3790.7620  3466.8274  2822.0588  2289.2930  2109.5408  2075.8921  2154.1692  2424.3440  2564.0376  2432.4746  2120.0227  1686.1256  1518.2465  1913.7739  2487.8394  2992.5537  3284.2139  3366.3669  3463.8674
12.0000    12.0000    12.0000    12.0000     0.0000     0.0000     0.0000     0.0000     0.0000     0.0000    48.0000    25.0000    25.0000    12.0000    66.0000   191.0000   155.0000   205.2719    16.0000    24.0000    14.0000    12.0000    43.0000    12.0000     0.0000     0.0000    12.0000    44.5000    85.0000   106.0000   124.0000   103.0000    44.0000     0.0000     0.0000     0.0000     0.0000     0.0000     0.0000     0.0000     0.0000     0.0000     0.0000     0.0000     0.0000     0.0000     0.0000     0.0000     0.0000     0.0000     0.0000     0.0000     0.0000     0.0000     0.0000     0.0000     0.0000     0.0000     0.0000     0.0000     0.0000     0.0000     0.0000     0.0000     0.0000     0.0000     0.0000     0.0000     0.0000     0.0000     0.0000     0.0000     0.0000     0.0000     0.0000     0.0000     0.0000     0.0000     0.0000     0.0000     0.0000     0.0000     0.0000     0.0000     0.0000     0.0000     0.0000    54.0000   189.5000   233.4742   253.8760   231.2817   186.5000   147.5000   147.0000   133.0000   129.0000   188.0000   345.7456   464.8459   499.5679   494.5407   457.3550   395.6561   304.3709   153.0000     0.0000     0.0000     0.0000     0.0000     0.0000     0.0000     0.0000     0.0000     0.0000     0.0000    12.0000    19.0000    34.0000    53.0000   208.3455   217.1612   211.1014   221.8237   260.7604   285.4817   294.5045   312.4242   345.6591   382.1003   424.4300   438.2721   421.0023   385.2664   289.0656    27.5000     0.0000     0.0000     0.0000     0.0000     0.0000     0.0000    18.0000   174.5000   153.5000    32.0000     0.0000     0.0000    53.0000    80.0000   110.5000   140.0000   187.0000   330.7772   436.0892   509.3399   542.7660   556.2957   560.2896   564.1243   577.7806   606.0443   667.8925   794.0786   978.0228  1107.4199  1238.7435  1469.9137  1675.6124  1854.3907  2056.2183  2231.8862  2356.2346  2432.5398  2484.7588  2549.3645  2627.6282  2702.2881  2764.4453  2798.1316  2798.5608  2789.4475  2862.3564  2985.6106  3059.4807  3157.4705  3216.8857  3235.6077  3240.7898  3243.0918  3243.1882  3239.7751  3231.7607  3218.8569  3205.5237  3193.9402  3137.5847  2985.3943  2869.6182  2825.5945  2790.4006  2784.7761  2826.6880  2820.7534  2736.4634  2591.4902  2459.3325  2370.3479  2333.8706  2337.3711  2309.3528  2174.2842  1942.3392  1614.3335  1367.8632  1457.7064  1701.9237  1783.2512  1757.1543  1692.3441  1559.5679  1469.2651  1523.8188  1784.1273  2074.3977  2120.5500  1935.4918  1867.1666  2105.3997  2352.8572  2480.9639  2499.8472  2443.8545  2489.8806  2668.4043  2886.8169  3019.9695  3070.5486  3066.3018  3036.4280  2996.7502  2971.7776  3049.7502  3173.7898  3289.2812  3450.0269  3594.1082  3620.0598  3567.0088  3631.4409  3764.3005  3858.6172  3875.3103  3760.5654  3444.6982  3097.8047  2823.3984  2526.4778  2280.4277  2253.0049  2442.6724  2470.9290  2330.6182  1931.4255  1500.6497  1545.1901  1963.0522  2557.4131  2946.9951  3071.3357  3132.1306
0.0000     0.0000    12.0000    12.0000     0.0000     0.0000     0.0000     0.0000     0.0000     0.0000    12.0000    12.0000    17.0714    12.0000    44.0000   207.8451   187.0000   211.5490    39.0000   140.0000   189.0000    65.0000    12.0000    12.0000     0.0000     0.0000    33.0000    79.0000   104.0000   118.0000   125.0000    78.5000     0.0000     0.0000     0.0000     0.0000     0.0000     0.0000     0.0000     0.0000     0.0000     0.0000     0.0000     0.0000     0.0000     0.0000     0.0000     0.0000     0.0000     0.0000     0.0000     0.0000     0.0000     0.0000     0.0000     0.0000     0.0000     0.0000     0.0000     0.0000     0.0000     0.0000     0.0000     0.0000     0.0000     0.0000     0.0000     0.0000     0.0000     0.0000     0.0000     0.0000     0.0000     0.0000     0.0000     0.0000     0.0000     0.0000     0.0000     0.0000     0.0000     0.0000    12.0000    29.0000   106.0000     0.0000     0.0000     0.0000   131.0000   203.8308   236.9295   215.7924   200.0000   185.5000   166.0000   131.5000   136.0000   208.5642   361.5677   472.2842   498.3874   490.9410   454.7131   392.0362   291.6695   125.0000     0.0000     0.0000     0.0000     0.0000     0.0000     0.0000     0.0000     0.0000     0.0000     0.0000     0.0000     0.0000     0.0000    12.0000    12.0000   151.0000   219.1230   237.1889   259.2161   278.6356   291.0444   313.5360   342.9244   375.4381   408.9536   418.9809   396.7422   367.1017   322.1886   185.0000    28.0000     0.0000     0.0000     0.0000     0.0000     0.0000    27.0000   198.0000   124.0000    22.0000     0.0000    38.0000   142.5000   215.3912   216.7258   204.9377   268.6054   358.7166   448.9715   515.0947   549.7227   569.7531   585.9268   601.4082   618.7375   671.9722   790.0609   946.6224  1123.4050  1262.9227  1414.9381  1598.7206  1769.2114  1918.5037  2091.0051  2273.7244  2409.2417  2480.1860  2518.6050  2568.5413  2645.5293  2721.1707  2773.9580  2789.9141  2760.6206  2711.3733  2754.7559  2897.6458  3053.9392  3183.6155  3235.3865  3247.2800  3251.6033  3255.6204  3257.9045  3256.1228  3248.5703  3235.1843  3221.3628  3210.2627  3160.7349  3033.8271  2952.5383  2945.4668  2950.0298  2947.3284  2926.7112  2870.0037  2799.7019  2703.3132  2572.1074  2455.7542  2387.3308  2382.3882  2357.5400  2232.5713  2054.2236  1791.2311  1518.2856  1627.0054  1820.7982  1857.6949  1820.7229  1696.1796  1495.2527  1360.8120  1388.4607  1635.6100  1995.7117  2091.5029  1907.4185  1811.8503  2038.1931  2336.7200  2514.2009  2485.8933  2302.7493  2280.3450  2530.8933  2856.0032  3035.2498  3090.8613  3081.8196  3037.7568  2946.8218  2814.3193  2747.6147  2759.8616  2929.3145  3278.9077  3566.3198  3660.1294  3628.3315  3622.4355  3700.3455  3837.9519  3895.6589  3880.0212  3794.8545  3647.7046  3437.8489  3172.5293  2867.0271  2557.6729  2385.6145  2280.2124  2186.3044  1885.5343  1478.1578  1416.6553  1781.1567  2535.5327  2907.8704  3012.1013  3031.1797
0.0000     0.0000     0.0000     0.0000     0.0000     0.0000     0.0000     0.0000     0.0000     0.0000    23.0000    16.0000    16.6250    36.5000   117.0000   215.4264   218.9403   126.0000    57.5000   195.0000   173.0000   182.5000   116.0000    13.0000    12.0000    40.5000    75.0000   108.0000   113.0000   108.0000    99.0000    71.0000     0.0000     0.0000     0.0000     0.0000     0.0000     0.0000     0.0000     0.0000     0.0000     0.0000     0.0000     0.0000     0.0000     0.0000     0.0000     0.0000     0.0000     0.0000     0.0000     0.0000     0.0000     0.0000     0.0000     0.0000     0.0000     0.0000     0.0000     0.0000     0.0000     0.0000     0.0000     0.0000     0.0000     0.0000     0.0000     0.0000     0.0000     0.0000     0.0000     0.0000     0.0000     0.0000     0.0000     0.0000     0.0000     0.0000     0.0000     0.0000     0.0000     0.0000    12.0000   121.5000   115.0000   107.0000     0.0000     0.0000   133.0000   193.5000   229.1835   211.5683   208.8889   205.5876   188.0000   126.0000   160.0000   229.2126   377.9197   477.3544   496.4408   487.6801   452.1039   388.1999   276.7255    83.5000     0.0000     0.0000     0.0000     0.0000     0.0000     0.0000     0.0000     0.0000     0.0000     0.0000     0.0000     0.0000     0.0000     0.0000     0.0000     0.0000   101.5000   144.5000   210.5993   258.9862   294.3449   327.9518   351.4959   357.3375   361.4973   371.8274   343.4584   270.7579   308.8033   277.8291   153.0000    40.0000     0.0000     0.0000     0.0000     0.0000    65.0000   174.0000   189.0000    46.0000    17.0000   112.5000   113.5000   228.9699   263.7413   305.0285   344.1399   404.2760   471.3140   528.6804   567.2550   603.8080   647.8513   687.4617   716.1545   801.5787   951.2010  1106.1105  1265.6119  1411.1855  1557.0219  1709.8396  1861.8829  1998.0004  2144.4585  2304.6338  2443.2783  2536.7695  2580.2446  2615.1609  2678.2759  2743.4785  2782.4172  2774.0671  2694.3225  2603.9031  2553.6091  2684.8484  3002.4453  3190.8162  3238.9993  3249.1204  3256.7737  3265.7781  3273.0845  3275.2283  3270.0879  3257.6584  3241.6287  3223.3850  3173.4602  3066.8540  3013.4524  3024.2600  3027.2393  2989.2998  2913.7422  2856.5593  2839.2217  2819.6318  2700.9817  2540.5857  2429.9463  2415.5483  2410.3484  2311.7812  2171.4680  1949.8955  1670.5593  1766.9747  1903.7235  1896.0819  1825.5626  1635.6377  1438.4957  1342.9235  1372.0834  1553.5035  1894.7488  2088.9109  1991.7827  1861.1389  2037.9518  2351.9167  2525.1753  2457.2317  2232.1084  2063.3181  2287.2458  2751.2832  3037.2209  3121.2083  3119.0513  3059.4839  2928.0508  2746.6243  2603.6287  2535.2644  2657.7058  3024.1492  3415.7009  3608.6248  3644.6265  3701.4822  3751.0508  3846.9490  3890.5557  3904.2534  3903.1309  3869.3054  3790.4822  3666.3416  3461.2668  3146.3755  2773.2483  2336.6892  1893.3938  1525.9679  1332.7821  1353.2799  1685.9241  2450.4666  2892.0508  3011.8840  3035.6873
0.0000     0.0000     0.0000     0.0000     0.0000     0.0000     0.0000     0.0000     0.0000     0.0000     0.0000     0.0000     0.0000     0.0000    59.0000   206.7477   118.0000   123.5000   102.0000   116.0000    75.0000   123.0000    91.0000    45.0000    57.0000    48.0000    73.0000   111.0000   124.5000   113.5000   124.0000    60.0000     0.0000     0.0000     0.0000     0.0000     0.0000     0.0000     0.0000     0.0000     0.0000     0.0000     0.0000     0.0000     0.0000     0.0000     0.0000     0.0000     0.0000     0.0000     0.0000     0.0000     0.0000     0.0000     0.0000     0.0000     0.0000     0.0000     0.0000     0.0000     0.0000     0.0000     0.0000     0.0000     0.0000     0.0000     0.0000     0.0000     0.0000     0.0000     0.0000     0.0000     0.0000     0.0000     0.0000     0.0000     0.0000     0.0000     0.0000     0.0000     0.0000     0.0000   102.0000   184.0000    74.0000   113.0000   132.0000   116.0000   152.0000   212.4308   231.4650   212.0738   210.1858   214.9945   200.0000   145.5000   170.5000   256.8537   389.0358   476.1536   492.2021   484.7721   450.9895   382.4757   254.7314     0.0000     0.0000     0.0000     0.0000     0.0000     0.0000     0.0000     0.0000     0.0000     0.0000     0.0000     0.0000     0.0000     0.0000     0.0000     0.0000     0.0000     0.0000     0.0000    75.0000   218.7870   277.2662   327.3340   335.5893   288.1022   197.5000   273.4983   282.4453    76.5000   210.9694   272.5760   256.8857   201.7913    88.0000    82.5000    65.0000     0.0000    35.0000   141.5000   190.8494   177.5000    75.5000   225.6278   219.2128   212.5921   291.5180   356.5481   401.2040   444.2807   485.2808   540.1340   606.8112   689.6605   766.6594   805.6380   846.2167   947.5539  1087.2080  1232.1686  1389.0673  1538.9060  1673.3385  1804.7634  1940.4534  2075.9834  2213.8684  2357.6509  2485.4316  2583.8623  2636.3931  2673.6956  2721.8379  2758.6484  2771.4116  2758.0640  2634.3789  2517.7673  2427.4441  2528.3032  2914.8015  3162.4463  3227.7317  3242.9460  3256.3613  3273.2405  3288.0671  3295.3440  3292.9001  3281.4111  3262.9604  3235.5449  3175.4192  3080.7466  3060.6062  3073.7092  3048.7759  2965.4119  2858.6941  2826.9377  2864.6201  2915.6396  2806.2690  2603.8289  2455.7944  2458.4814  2498.0806  2428.5220  2289.9993  2100.1770  1913.6855  2001.1978  2019.8873  1941.1422  1836.2676  1638.1793  1481.0736  1408.7727  1406.7576  1493.6602  1747.1653  2039.7460  2092.2957  1993.3242  2142.0303  2399.7622  2504.5425  2416.2310  2333.6458  2219.6831  2301.7273  2735.1108  3063.8870  3142.5701  3133.7324  3079.9441  2973.1438  2822.0344  2672.7700  2551.8276  2544.3931  2775.1365  3186.4248  3508.4551  3635.6580  3733.3303  3712.7693  3778.2874  3860.8132  3895.2979  3912.6792  3926.5796  3925.3972  3889.5659  3807.2285  3627.4644  3280.9446  2733.7341  2076.7300  1478.6417  1255.7570  1281.5234  1515.6924  2100.1514  2676.2478  2894.1780  2898.4346
0.0000     0.0000     0.0000     0.0000     0.0000     0.0000     0.0000     0.0000     0.0000     0.0000     0.0000     0.0000     0.0000    57.0000   121.5000    80.0000    53.0000    70.5000    12.0000     0.0000    22.0000    18.0000    12.0000    16.5000    12.0000   109.0000   157.0000   155.0000    96.0000   145.0000   114.0000     0.0000     0.0000     0.0000     0.0000     0.0000     0.0000     0.0000     0.0000     0.0000     0.0000     0.0000     0.0000     0.0000     0.0000     0.0000     0.0000     0.0000     0.0000     0.0000     0.0000     0.0000     0.0000     0.0000     0.0000     0.0000     0.0000     0.0000     0.0000     0.0000     0.0000     0.0000     0.0000     0.0000     0.0000     0.0000     0.0000     0.0000     0.0000     0.0000     0.0000     0.0000     0.0000     0.0000     0.0000     0.0000     0.0000     0.0000     0.0000     0.0000     0.0000     0.0000    82.0000    67.5000    54.5000    88.0000   119.0000   157.0000   182.0000   233.3064   233.7945   212.9675   211.5420   223.6756   209.3884   154.0000   185.0000   292.7497   401.4678   473.7868   485.3289   479.5329   449.6902   376.9536   225.6521     0.0000     0.0000     0.0000     0.0000     0.0000     0.0000    31.5000    12.0000     0.0000     0.0000     0.0000     0.0000     0.0000     0.0000     0.0000     0.0000     0.0000     0.0000     0.0000     0.0000   167.0000   255.5824   308.9424   293.9684   142.5000    24.0000   113.0000   235.5648   120.5000    44.0000   228.1925   261.5643   250.5146   207.8842   192.0000    33.0000     0.0000     0.0000     0.0000    84.0000   218.8714   234.5453   272.3939   291.3799   303.0776   326.9676   373.5989   413.0214   443.2634   473.4280   550.7316   682.6859   835.2382   945.2206   975.3298  1003.0199  1087.1760  1220.3002  1374.9250  1521.9298  1658.5852  1780.0741  1894.9302  2018.3231  2151.8279  2291.5100  2449.9861  2566.1360  2640.6506  2688.1804  2726.3059  2761.0620  2765.9346  2742.4717  2740.4873  2591.5735  2466.4358  2417.9084  2497.9104  2836.3594  3117.3403  3214.3450  3236.8169  3253.7778  3278.8745  3301.9768  3314.1394  3313.6367  3303.8557  3285.4387  3253.4702  3194.9412  3129.9495  3136.1904  3126.3586  3052.4141  2932.3987  2846.1301  2864.8894  2949.7000  3012.7637  2871.4976  2620.2720  2460.7002  2500.1802  2563.7271  2524.2817  2387.9902  2262.0115  2177.4373  2150.9890  2026.6492  1881.8298  1778.7081  1658.6964  1567.7416  1501.1982  1452.0209  1454.2761  1605.8082  1918.4641  2106.4697  2095.0312  2226.1125  2429.8982  2524.8083  2490.5955  2506.3499  2511.4646  2565.7258  2890.4187  3127.5095  3150.1433  3131.6487  3095.8792  3034.9600  2953.9597  2848.4124  2722.9060  2631.7402  2733.2070  3069.4185  3456.9375  3701.8933  3760.7900  3626.6299  3586.8625  3732.3379  3832.5149  3887.9688  3921.4524  3936.6658  3931.3801  3923.4209  3864.4968  3647.8455  3157.9409  2420.3672  1661.8793  1270.4131  1224.4462  1343.2711  1697.2883  2294.4087  2611.2043  2566.5115
0.0000     0.0000     0.0000     0.0000     0.0000     0.0000     0.0000     0.0000     0.0000     0.0000     0.0000    62.0000    86.0000    85.0000    76.0000    12.0000    12.0000    12.0000    15.0833     0.0000    12.0000    12.0000    12.0000    12.0000    20.0000   149.0000   203.1402   119.0000   109.0000   154.5000   108.0000     0.0000     0.0000     0.0000     0.0000     0.0000     0.0000     0.0000     0.0000     0.0000     0.0000     0.0000     0.0000     0.0000     0.0000     0.0000     0.0000     0.0000     0.0000     0.0000     0.0000     0.0000     0.0000     0.0000     0.0000     0.0000     0.0000     0.0000     0.0000     0.0000     0.0000     0.0000     0.0000     0.0000     0.0000     0.0000     0.0000     0.0000     0.0000     0.0000     0.0000     0.0000     0.0000     0.0000     0.0000     0.0000     0.0000     0.0000     0.0000     0.0000     0.0000    55.5000    33.5000    12.0000    12.0000    51.0000   105.0000   164.0000   203.8037   244.1113   239.8071   221.3188   217.9711   229.1779   205.3621   158.0000   214.7374   317.5667   421.5810   477.6179   481.4035   476.1277   449.6011   373.6234   192.0000     0.0000     0.0000     0.0000     0.0000     0.0000     0.0000    56.0000    16.0000     0.0000     0.0000     0.0000     0.0000     0.0000     0.0000     0.0000     0.0000     0.0000     0.0000     0.0000     0.0000   156.0000   216.2796   263.9011   251.3963    33.0000     0.0000     0.0000   220.0770   254.7707    72.5000   107.5000   217.3930   204.2648   211.8869   110.0000    20.0000     0.0000     0.0000    12.0000    19.5000   136.5000   226.6570   260.8576   287.0545   306.5667   323.2735   358.7820   390.7286   419.6202   468.9726   592.3846   805.3456  1024.7976  1160.3984  1177.9025  1173.2924  1237.8531  1381.4386  1547.7107  1673.6259  1768.1080  1861.1957  1977.1902  2108.0234  2238.5303  2402.9592  2603.8010  2699.0432  2721.4573  2742.1616  2769.4998  2797.2429  2806.6497  2793.9509  2766.1013  2595.7966  2517.9180  2534.0447  2577.9678  2807.3296  3082.8059  3202.9048  3232.6038  3254.7688  3287.8682  3317.6714  3333.2131  3332.7729  3323.5239  3307.2969  3276.1187  3230.9180  3194.0544  3196.4241  3165.5991  3049.2500  2916.8003  2918.8904  3018.2825  3113.4485  3103.4229  2888.0212  2595.9321  2463.1968  2541.3120  2603.5056  2570.1694  2430.2087  2332.5183  2280.1187  2163.3984  1938.5311  1805.8405  1746.4022  1696.0110  1645.9822  1585.4044  1506.4031  1442.6362  1525.6042  1841.4524  2109.9341  2188.2141  2301.4478  2459.0378  2570.3193  2619.2910  2691.9807  2763.7871  2821.6680  3026.5549  3182.7354  3200.8723  3164.7585  3119.4773  3070.1907  3021.8665  2964.7805  2883.4656  2810.2219  2856.8093  3103.8264  3463.9001  3746.2771  3819.4202  3690.6914  3515.2415  3555.4136  3699.2432  3843.1431  3901.8079  3918.5042  3933.2468  3956.1455  3945.5889  3840.9783  3468.7588  2704.7585  1860.2579  1306.2235  1180.3370  1254.3336  1547.2043  2121.5239  2421.5510  2438.3159
0.0000     0.0000     0.0000     0.0000     0.0000     0.0000     0.0000     0.0000     0.0000     0.0000     0.0000    26.0000    14.0000    65.2500     0.0000     0.0000    12.0000    12.0000    12.0000    12.0000    12.0000    12.0000    12.0000    12.0000    28.5000   111.5000   205.3347   131.0000   127.5000   166.0000    82.0000     0.0000     0.0000     0.0000     0.0000     0.0000     0.0000     0.0000     0.0000     0.0000     0.0000     0.0000     0.0000     0.0000     0.0000     0.0000     0.0000     0.0000     0.0000     0.0000     0.0000     0.0000     0.0000     0.0000     0.0000     0.0000     0.0000     0.0000     0.0000     0.0000     0.0000     0.0000     0.0000     0.0000     0.0000     0.0000     0.0000     0.0000     0.0000     0.0000     0.0000     0.0000     0.0000     0.0000     0.0000     0.0000     0.0000     0.0000     0.0000     0.0000     0.0000    12.0000    12.0000     0.0000     0.0000    12.0000    74.0000   146.5000   210.8056   247.5148   243.3244   234.0894   230.1420   232.1942   199.0000   169.0000   220.5229   338.0430   438.8136   481.4930   481.0884   475.8910   453.1127   378.7543     0.0000     0.0000     0.0000     0.0000     0.0000     0.0000    40.0000   111.0000     0.0000     0.0000     0.0000     0.0000     0.0000     0.0000     0.0000     0.0000     0.0000     0.0000     0.0000     0.0000     0.0000    98.5000   116.0000   167.5000   219.6290    87.0000     0.0000     0.0000   117.0000   266.2328   167.5000    73.5000   127.0000   167.0000   122.0000   141.0000    78.0000    18.5000    12.0000    16.5000    28.0000    80.0000   150.5000   245.0533   285.3276   292.9465   305.9038   354.4781   387.7673   417.1264   489.0620   666.7605   937.3104  1194.9000  1365.3959  1409.4890  1377.3761  1440.2795  1583.4796  1709.7249  1792.6340  1852.3885  1923.9878  2046.5308  2201.2712  2358.0828  2573.3210  2789.5291  2847.9263  2816.8042  2801.0703  2810.2561  2831.2268  2849.3525  2855.5225  2810.2781  2670.2976  2706.3958  2774.3064  2755.7432  2825.1450  3025.3904  3170.1587  3229.3254  3266.3315  3306.0461  3340.2332  3357.0198  3354.6882  3344.0742  3330.2629  3294.6877  3249.7827  3233.3240  3231.5618  3193.5925  3083.0715  2995.1477  3071.7329  3177.2527  3219.3716  3154.8582  2915.0715  2619.9795  2518.3337  2605.1787  2649.4966  2610.0586  2491.8916  2393.0171  2296.4565  2101.1582  1857.6740  1773.7263  1765.5067  1751.4227  1717.0317  1669.5256  1584.5057  1468.2859  1488.9751  1789.6150  2104.5920  2215.0632  2290.3757  2426.6956  2588.8149  2729.3184  2873.0276  3005.5449  3055.8062  3149.0852  3249.2935  3284.8059  3230.4893  3157.8281  3099.7971  3054.1816  3021.1870  3000.5664  2997.1340  3066.4231  3278.7341  3574.9666  3803.2910  3880.0005  3837.9631  3691.5916  3569.0723  3659.7092  3829.3806  3895.3174  3909.2759  3925.2351  3950.8599  3957.3701  3903.6084  3580.9990  2751.0283  1879.4384  1301.4440  1146.4572  1215.3444  1552.0807  2173.5427  2441.3213  2506.4333
0.0000     0.0000     0.0000     0.0000     0.0000     0.0000     0.0000     0.0000     0.0000     0.0000     0.0000     0.0000     0.0000     0.0000     0.0000     0.0000     0.0000    12.0000    52.5000    12.0000    12.0000     0.0000    13.0000    28.0000    23.0000    25.5000   171.0000   200.7509   150.0000   169.5000    78.0000     0.0000     0.0000     0.0000     0.0000     0.0000     0.0000     0.0000     0.0000     0.0000     0.0000     0.0000     0.0000     0.0000     0.0000     0.0000     0.0000     0.0000     0.0000     0.0000     0.0000     0.0000     0.0000     0.0000     0.0000     0.0000     0.0000     0.0000     0.0000     0.0000     0.0000     0.0000     0.0000     0.0000     0.0000     0.0000     0.0000     0.0000     0.0000     0.0000     0.0000     0.0000     0.0000     0.0000     0.0000     0.0000     0.0000     0.0000     0.0000     0.0000     0.0000     0.0000     0.0000     0.0000     0.0000     0.0000    21.5000   111.0000   208.9511   243.3901   245.3107   236.5914   236.6526   229.9384   191.0000   178.5000   243.6929   354.5640   448.7707   481.7784   480.7148   477.2622   459.1003   387.2546     0.0000     0.0000     0.0000     0.0000     0.0000     0.0000    67.0000   141.0000     0.0000     0.0000     0.0000     0.0000     0.0000     0.0000     0.0000     0.0000     0.0000     0.0000     0.0000     0.0000     0.0000     0.0000     0.0000    15.0000   200.7093   191.0000     0.0000     0.0000   182.0000   252.5806   132.5000    64.0000    50.0000   135.0000   114.0000    80.0000    55.0000    25.0000    28.0000   137.0000   134.0000   121.5000   169.0000   238.2180   302.3281   328.0363   352.2678   394.1729   432.8304   461.4042   553.3695   781.4012  1075.5554  1348.9771  1561.9100  1676.1002  1615.7305  1643.5098  1745.9115  1825.8943  1886.7881  1938.7135  1999.9437  2118.1174  2286.8376  2499.4878  2766.4077  2941.3887  2964.0999  2910.6846  2869.5630  2861.8220  2874.7693  2897.9617  2922.9741  2913.7705  2866.9102  2925.7688  2946.1990  2868.2898  2854.1653  2993.5898  3154.0452  3237.0613  3282.1814  3324.6753  3360.7593  3375.0471  3373.4207  3366.5574  3350.3069  3276.3152  3188.9912  3235.3127  3260.7849  3222.2952  3144.7507  3118.4553  3195.2415  3253.2188  3253.2610  3172.5774  2946.9558  2695.1460  2643.0220  2715.2864  2713.9817  2640.1545  2556.2444  2443.1211  2265.5007  2018.1727  1831.4205  1784.0120  1787.7285  1800.3635  1802.6841  1781.4325  1713.2498  1597.4977  1589.3031  1843.7662  2142.5691  2249.8547  2273.8438  2378.1096  2571.3137  2791.6489  2993.6191  3132.9878  3197.3738  3273.9800  3363.9631  3409.9758  3352.0549  3254.4924  3194.9785  3159.0842  3126.1270  3129.4753  3187.2256  3313.3596  3525.2456  3738.3137  3860.4250  3903.1968  3904.5862  3859.4358  3794.2139  3810.4236  3873.8674  3900.1609  3907.2261  3918.4810  3936.7454  3947.8931  3918.2183  3629.0664  2755.1467  1813.6519  1268.3540  1116.8552  1185.6036  1561.8883  2228.6306  2492.5513  2557.0046
0.0000     0.0000     0.0000     0.0000     0.0000     0.0000     0.0000     0.0000     0.0000     0.0000     0.0000     0.0000     0.0000     0.0000     0.0000     0.0000     0.0000    12.0000    44.0000    17.0000    12.0000     0.0000    12.0000    33.5000    12.0000    72.0000   200.0000   204.8164   189.0000   141.5000    63.0000     0.0000     0.0000     0.0000     0.0000     0.0000     0.0000     0.0000     0.0000     0.0000     0.0000     0.0000     0.0000     0.0000     0.0000     0.0000     0.0000     0.0000     0.0000     0.0000     0.0000     0.0000     0.0000     0.0000     0.0000     0.0000     0.0000     0.0000     0.0000     0.0000     0.0000     0.0000     0.0000     0.0000     0.0000     0.0000     0.0000     0.0000     0.0000     0.0000     0.0000     0.0000     0.0000     0.0000     0.0000     0.0000     0.0000     0.0000     0.0000     0.0000     0.0000     0.0000     0.0000     0.0000     0.0000     0.0000     0.0000    63.5000   195.0000   223.5743   239.2917   235.0973   237.2704   227.6711   175.0000   187.0000   266.6272   371.5382   455.1459   482.1167   481.4725   480.1594   466.6371   400.6624   237.6418     0.0000     0.0000     0.0000     0.0000     0.0000   136.0000   161.0000     0.0000     0.0000     0.0000     0.0000     0.0000     0.0000     0.0000     0.0000     0.0000     0.0000     0.0000     0.0000     0.0000     0.0000     0.0000     0.0000   134.5000   210.9246    34.0000    64.0000   210.4968   233.9498   219.5857   112.5000    17.0000    41.5000    70.0000    82.5000    56.0000    12.0000    91.0000   169.0000   180.0000   183.0000   220.3100   280.9792   327.5953   329.5726   355.1702   422.2462   513.3331   585.2449   710.1429   965.5206  1264.2197  1503.6876  1702.7129  1879.7494  1804.4718  1790.7905  1853.2174  1911.3081  1972.0140  2039.7198  2111.9822  2208.2080  2363.4678  2620.3098  2880.3313  2985.7888  2993.6494  2964.8799  2932.1064  2923.8342  2936.2920  2969.1643  3011.7185  3031.8672  3038.0420  3073.9529  3064.4722  2981.0010  2943.9836  3044.2356  3178.3726  3250.1594  3287.6357  3329.0007  3364.0818  3371.5784  3372.9468  3368.4097  3303.7900  3088.8005  2968.0505  3192.6531  3296.1514  3265.3545  3216.5471  3218.3538  3264.6089  3284.1472  3262.6279  3180.4973  2994.0930  2803.9504  2767.3037  2781.1648  2736.1357  2657.9634  2585.2551  2447.9834  2210.1199  1948.1156  1827.1311  1812.3087  1817.5834  1837.4360  1865.2722  1864.7802  1818.2292  1767.7509  1791.3740  1990.3689  2247.0522  2349.1592  2334.3311  2366.9026  2500.2087  2718.0398  2923.2839  3070.9314  3189.4739  3330.2178  3457.4148  3540.8152  3544.9812  3477.2964  3444.7874  3450.5005  3420.4177  3398.6851  3460.6455  3592.5061  3745.8821  3842.5632  3880.6350  3898.0376  3906.0969  3900.6160  3888.9211  3885.8704  3895.0669  3900.9614  3904.6375  3912.1018  3925.9050  3941.3481  3927.0364  3684.9126  2902.6145  1974.9532  1340.0804  1121.2483  1206.6425  1642.6420  2265.5974  2508.0000  2580.1785
0.0000     0.0000     0.0000     0.0000     0.0000     0.0000     0.0000     0.0000     0.0000     0.0000     0.0000     0.0000     0.0000     0.0000     0.0000     0.0000     0.0000    22.0000   154.5000    56.0000   149.0000   163.5000   106.5000    58.0000    12.0000   130.0000   227.1328   218.5953   179.0000   119.0000    50.0000     0.0000     0.0000     0.0000     0.0000     0.0000     0.0000     0.0000     0.0000     0.0000     0.0000     0.0000     0.0000     0.0000     0.0000     0.0000     0.0000     0.0000     0.0000     0.0000     0.0000     0.0000     0.0000     0.0000     0.0000     0.0000     0.0000     0.0000     0.0000     0.0000     0.0000     0.0000     0.0000     0.0000     0.0000     0.0000     0.0000     0.0000     0.0000     0.0000     0.0000     0.0000     0.0000     0.0000     0.0000     0.0000     0.0000     0.0000     0.0000     0.0000     0.0000     0.0000     0.0000     0.0000     0.0000     0.0000     0.0000    17.0000   128.0000   209.8472   227.0885   228.0259   229.8547   217.7279   166.5000   191.0000   289.4827   387.9642   460.7325   483.1954   482.3906   482.5980   474.6245   425.7739   294.6385     0.0000     0.0000     0.0000     0.0000     0.0000   178.0000   173.0000     0.0000     0.0000     0.0000     0.0000     0.0000     0.0000     0.0000     0.0000     0.0000     0.0000     0.0000     0.0000     0.0000     0.0000     0.0000     0.0000   100.0000   227.0534   208.0096   214.6692   214.1926   135.0000   163.0000    78.0000     0.0000     0.0000    16.0000    68.0000    38.0000    96.0000   140.5000   195.0000   213.1392   212.3487   272.8443   343.0003   380.0928   311.9956   230.4429   366.8693   520.0002   711.8002   932.3826  1228.5593  1516.5553  1685.5371  1816.7802  1972.3134  1930.0211  1895.1670  1928.4771  1984.1157  2063.3621  2152.2305  2223.0322  2285.3464  2419.2783  2709.8054  2937.1987  2962.0688  2963.8699  2989.0608  2994.3752  3002.3831  3021.1284  3053.0554  3092.1819  3117.3481  3133.2952  3158.5435  3166.9480  3138.2698  3124.9341  3174.4458  3231.2749  3259.5474  3277.6260  3315.5427  3348.7761  3348.2712  3358.6855  3345.0569  3152.8386  2779.6384  2851.2925  3219.6125  3346.7219  3324.5715  3296.6340  3303.8381  3322.6421  3315.4634  3281.9014  3215.3726  3094.3452  2959.3584  2880.8184  2803.7927  2722.6602  2663.1091  2589.8203  2433.3323  2174.4617  1913.5995  1835.8169  1857.3857  1866.9041  1866.9049  1888.9634  1907.6335  1888.7920  1890.9022  1967.9117  2141.9441  2339.1853  2421.4670  2413.5896  2398.5608  2458.8860  2608.9192  2750.7319  2899.6477  3077.7292  3282.6812  3463.5049  3578.5312  3645.5640  3674.2688  3681.3877  3729.2622  3748.9094  3733.8220  3738.9985  3780.3408  3836.6121  3855.0232  3863.5408  3880.9756  3894.7961  3898.3564  3898.7935  3897.8137  3898.7158  3900.3289  3901.5146  3903.1162  3908.6328  3922.6118  3919.8164  3705.0513  2998.1111  2125.5815  1414.0420  1135.7078  1276.6166  1823.9268  2318.8792  2501.8145  2615.7695
0.0000     0.0000     0.0000     0.0000     0.0000     0.0000     0.0000     0.0000     0.0000     0.0000     0.0000     0.0000     0.0000     0.0000     0.0000     0.0000     0.0000    16.5000   105.0000    23.0000   124.0000   193.0000   202.9597    54.0000    68.0000   152.0000   240.3891   230.5865   182.0000    89.0000    56.0000     0.0000     0.0000     0.0000     0.0000     0.0000     0.0000     0.0000     0.0000     0.0000     0.0000     0.0000     0.0000     0.0000     0.0000     0.0000     0.0000     0.0000     0.0000     0.0000     0.0000     0.0000     0.0000     0.0000     0.0000     0.0000     0.0000     0.0000     0.0000     0.0000     0.0000     0.0000     0.0000     0.0000     0.0000     0.0000     0.0000     0.0000     0.0000     0.0000     0.0000     0.0000     0.0000     0.0000     0.0000     0.0000     0.0000     0.0000     0.0000     0.0000     0.0000     0.0000     0.0000     0.0000     0.0000     0.0000     0.0000     0.0000    41.0000   169.0000   206.0478   216.2621   218.5274   189.0000   163.0000   195.0000   300.6223   396.0129   461.6914   482.8446   481.8385   483.8173   482.7554   454.4831   364.8866     0.0000     0.0000     0.0000     0.0000    93.0000   225.9889   232.5618   130.5000     0.0000     0.0000     0.0000     0.0000     0.0000     0.0000     0.0000     0.0000     0.0000     0.0000     0.0000     0.0000     0.0000     0.0000     0.0000   183.0000   231.8411   212.4297   162.0000    90.5000    19.0000    80.0000    71.5000     0.0000     0.0000     0.0000     0.0000    62.0000   166.5000   199.0000   241.6940   230.7682   240.6516   291.6870   380.0594   446.0490   404.0250   330.3822   308.2350   479.3915   745.1174  1105.6320  1486.0153  1749.8014  1855.8041  1909.2432  2003.0590  2032.6664  1998.2987  2003.2842  2062.0642  2159.7192  2255.5691  2317.9189  2344.6372  2454.8455  2791.9856  3062.6731  3089.8704  3038.1133  3042.5618  3064.6086  3084.7739  3105.4126  3129.2410  3156.5916  3174.6477  3182.0369  3197.6868  3223.2405  3240.0679  3248.8560  3265.3345  3278.0132  3280.2427  3281.1799  3298.3044  3281.8154  3208.4321  3249.0342  3283.8276  3046.9597  2832.5337  3099.5828  3340.5901  3388.5879  3373.1113  3364.0610  3371.4924  3371.8142  3348.7671  3310.5667  3259.2969  3189.1660  3094.2354  2963.4243  2800.7590  2707.2012  2662.9053  2586.7905  2434.0771  2194.0479  1962.5028  1892.6495  1905.9818  1905.5592  1907.7238  1923.0563  1956.0726  1981.0453  2027.1562  2123.5208  2256.7727  2388.1287  2451.3916  2451.2354  2408.5203  2457.9150  2634.9067  2755.0801  2857.3604  3024.4805  3233.6404  3437.4446  3544.1653  3540.8354  3599.2993  3670.3777  3783.4858  3848.8186  3853.6077  3835.8201  3823.4536  3814.7131  3801.9631  3826.1699  3864.7585  3888.7495  3895.7683  3897.7568  3899.3193  3900.4968  3900.6460  3898.8110  3893.4568  3886.0952  3888.4619  3896.6738  3732.5571  3122.1599  2224.0588  1450.5297  1139.5876  1331.8029  1959.4475  2342.5579  2464.3801  2576.3645
0.0000     0.0000     0.0000     0.0000     0.0000     0.0000     0.0000     0.0000     0.0000     0.0000     0.0000     0.0000     0.0000     0.0000     0.0000     0.0000     0.0000     0.0000    12.0000    14.0000   110.0000   195.5000   193.0000    27.5000   167.0000   229.5032   249.8923   229.1730   126.5000    76.0000    45.0000     0.0000     0.0000     0.0000     0.0000     0.0000     0.0000     0.0000     0.0000     0.0000     0.0000     0.0000     0.0000     0.0000     0.0000     0.0000     0.0000     0.0000     0.0000     0.0000     0.0000     0.0000     0.0000     0.0000     0.0000     0.0000     0.0000     0.0000     0.0000     0.0000     0.0000     0.0000     0.0000     0.0000     0.0000     0.0000     0.0000     0.0000     0.0000     0.0000     0.0000     0.0000     0.0000     0.0000     0.0000     0.0000     0.0000     0.0000     0.0000     0.0000     0.0000     0.0000     0.0000     0.0000     0.0000     0.0000     0.0000     0.0000     0.0000   104.0000   169.0000   207.3914   212.7268   175.0000   161.0000   195.0000   303.8913   396.5848   460.4686   484.6758   483.9022   484.8576   486.9716   474.3156   425.3314   319.0124     0.0000     0.0000     0.0000    83.5000   242.6430   240.6292   128.0000     0.0000     0.0000     0.0000     0.0000     0.0000     0.0000     0.0000     0.0000     0.0000     0.0000     0.0000     0.0000     0.0000     0.0000     0.0000   208.4275   216.1613    37.0000    13.0000    12.0000     0.0000     0.0000     0.0000     0.0000     0.0000     0.0000    12.0000    39.0000   158.5000   219.0295   252.7072   261.6180   241.5524   279.8454   349.6516   450.1549   476.9083   458.8292   468.3049   541.8459   819.9725  1264.8646  1658.8445  1894.4866  1984.9512  2008.8823  2076.3118  2148.0181  2125.3206  2112.2576  2167.1089  2263.0261  2343.6292  2383.3596  2378.9802  2440.9336  2790.9883  3115.9468  3148.3455  3054.2253  3075.6118  3124.8081  3152.4587  3170.4578  3184.9346  3201.2473  3213.6133  3219.2976  3234.3640  3269.7271  3300.8909  3312.5046  3317.1521  3320.9026  3322.0459  3318.1541  3287.8208  3139.0830  2936.0269  3066.7910  3269.9993  3198.3357  3215.6721  3367.5889  3418.5330  3411.0874  3400.9548  3398.3240  3399.7681  3393.5803  3372.7976  3337.9177  3287.2065  3228.3252  3144.3538  2985.9905  2779.2542  2688.7358  2654.6108  2573.6907  2433.7600  2242.3245  2066.6973  1974.5826  1930.2653  1911.9902  1960.3743  1980.6332  1996.5020  2035.7703  2114.3931  2206.7002  2302.5234  2395.0173  2456.9849  2463.9241  2402.7681  2461.9092  2722.3293  2864.9441  2923.6094  3056.7605  3270.6169  3509.6946  3619.6978  3507.5432  3448.1121  3573.0535  3736.0740  3836.4443  3864.0720  3856.7705  3828.8301  3767.6145  3753.6096  3807.6108  3863.4456  3889.3840  3896.0071  3898.7297  3901.4558  3902.7898  3902.4204  3900.0315  3893.9990  3885.4712  3878.7544  3850.8647  3666.5134  3113.3391  2196.6638  1420.4080  1109.7852  1298.3566  1943.9683  2301.5425  2410.4138  2501.8560
0.0000     0.0000     0.0000     0.0000     0.0000     0.0000     0.0000     0.0000     0.0000     0.0000     0.0000     0.0000     0.0000     0.0000     0.0000     0.0000     0.0000     0.0000     0.0000     0.0000    37.0000    70.5000    92.5000    55.0000   213.3670   182.0000   234.5187   207.0171    91.5000    71.0000    28.5000     0.0000     0.0000     0.0000     0.0000     0.0000     0.0000     0.0000     0.0000     0.0000     0.0000     0.0000     0.0000     0.0000     0.0000     0.0000     0.0000     0.0000     0.0000     0.0000     0.0000     0.0000     0.0000     0.0000     0.0000     0.0000     0.0000     0.0000     0.0000     0.0000     0.0000     0.0000     0.0000     0.0000     0.0000     0.0000     0.0000     0.0000     0.0000     0.0000     0.0000     0.0000     0.0000     0.0000     0.0000     0.0000     0.0000     0.0000     0.0000     0.0000     0.0000     0.0000     0.0000     0.0000     0.0000     0.0000     0.0000     0.0000     0.0000    52.0000   121.5000   173.0000   168.0000   138.5000   148.0000   177.0000   297.4514   388.8035   455.3765   486.0201   488.7105   487.9635   489.7910   484.9523   461.2900   403.8353   302.9279   178.5000   171.0000   210.8497   270.3673   212.9476     0.0000     0.0000     0.0000     0.0000     0.0000     0.0000     0.0000     0.0000     0.0000     0.0000     0.0000     0.0000     0.0000    76.0000    55.5000   109.5000   172.5000    99.0000     0.0000     0.0000     0.0000     0.0000     0.0000     0.0000     0.0000     0.0000    12.0000    22.0000    88.0000   112.0000   189.5000   216.0242   246.9339   260.3835   237.3415   291.4820   365.1209   406.3303   438.0644   510.5394   643.9648   968.6779  1424.5729  1771.0933  1979.4222  2075.3828  2107.3491  2177.4072  2270.3562  2259.8330  2245.1865  2290.8035  2358.7832  2405.3418  2435.7107  2445.6584  2524.6433  2855.2043  3118.6113  3074.9939  2993.4487  3094.1611  3169.5442  3192.7673  3207.5117  3223.5852  3241.8586  3258.8745  3272.9482  3294.5237  3330.2227  3355.4033  3357.5129  3355.3030  3359.7017  3370.8057  3374.2566  3301.9148  3079.2854  2969.0889  3222.9202  3412.3691  3417.8171  3454.9507  3483.7515  3462.9509  3438.1125  3424.3198  3417.3879  3412.3462  3404.8474  3391.2463  3357.4958  3288.7783  3217.3743  3121.0801  2939.8069  2720.6982  2647.4099  2624.2092  2531.6799  2375.4055  2220.5386  2103.4377  1988.6881  1899.6179  1908.4530  1992.1593  2006.3704  2006.9763  2045.3750  2138.1333  2221.9368  2302.7883  2383.4851  2456.7419  2508.3408  2493.4299  2554.2117  2811.3704  2982.4160  3059.0945  3156.0032  3312.8850  3523.1052  3686.5198  3675.9773  3564.5220  3546.8794  3670.3455  3805.2266  3857.2522  3867.8994  3855.9170  3809.8140  3797.7913  3839.2751  3879.1628  3893.7759  3897.3801  3901.1497  3904.7234  3906.3418  3906.4661  3905.8193  3903.8286  3896.5696  3858.7109  3709.5229  3363.0247  2790.0615  1950.7501  1305.2676  1072.3514  1258.1505  1864.0321  2203.0942  2329.5571  2442.3130
0.0000     0.0000     0.0000     0.0000     0.0000     0.0000     0.0000     0.0000     0.0000     0.0000     0.0000     0.0000     0.0000     0.0000     0.0000     0.0000     0.0000     0.0000     0.0000     0.0000     0.0000     0.0000    30.0000    91.0000   220.6192   102.0000   218.8672   120.0000    61.0000    65.0000    20.0000     0.0000     0.0000     0.0000     0.0000     0.0000     0.0000     0.0000     0.0000     0.0000     0.0000     0.0000     0.0000     0.0000     0.0000     0.0000     0.0000     0.0000     0.0000     0.0000     0.0000     0.0000     0.0000     0.0000     0.0000     0.0000     0.0000     0.0000     0.0000     0.0000     0.0000     0.0000     0.0000     0.0000     0.0000     0.0000     0.0000     0.0000     0.0000     0.0000     0.0000     0.0000     0.0000     0.0000     0.0000     0.0000     0.0000     0.0000     0.0000     0.0000     0.0000     0.0000     0.0000     0.0000     0.0000     0.0000     0.0000     0.0000    15.0000    55.0000    85.0000   124.0000   113.0000   108.0000   122.0000   154.5000   284.5553   372.3785   441.8087   482.7077   492.3261   492.2916   493.4251   490.2794   477.7116   449.9717   401.9661   356.5445   327.0448   318.8949   297.4084   153.0000     0.0000     0.0000     0.0000     0.0000     0.0000     0.0000     0.0000     0.0000     0.0000     0.0000     0.0000     0.0000     0.0000    60.0000   121.0000    96.0000   111.0000    73.0000     0.0000     0.0000     0.0000     0.0000     0.0000     0.0000     0.0000     0.0000    19.0000   199.9179   202.3189   185.0000   202.1830   201.9212   253.2079   268.3972   288.4866   312.8594   314.7374   357.0177   430.1155   563.0504   791.2624  1169.4292  1585.2894  1865.7100  2067.5317  2173.1143  2210.3518  2287.1277  2410.9934  2410.1409  2377.7114  2387.2297  2408.5269  2430.4148  2473.1802  2528.3777  2664.2676  2956.1648  3117.0676  2987.9890  2953.0737  3113.5247  3186.5498  3203.9910  3228.2036  3258.3643  3287.1990  3311.4592  3330.7588  3350.0320  3374.9421  3389.7395  3387.0637  3382.2722  3388.1912  3408.0964  3427.1184  3399.9658  3303.8457  3301.4500  3427.6819  3503.6902  3514.0671  3520.9106  3512.8931  3487.4128  3462.5366  3444.9275  3432.4209  3422.3884  3413.6472  3399.4705  3350.2510  3247.0095  3156.6470  3045.8699  2855.5693  2669.3606  2621.2632  2580.4382  2450.8628  2301.5320  2190.4504  2111.2156  2016.6035  1940.3838  1995.1327  2056.0281  2031.1934  2012.6632  2040.0112  2116.6072  2199.7166  2284.3000  2361.4397  2436.2317  2532.0146  2601.6792  2672.3137  2831.2456  3013.9695  3162.9338  3278.9382  3381.8840  3511.7429  3665.0496  3771.2131  3773.5452  3749.3669  3775.8115  3820.2537  3843.3550  3868.0142  3874.9412  3859.6758  3855.7366  3876.0696  3892.0969  3896.6013  3899.3745  3904.7722  3909.4185  3911.5684  3912.1868  3913.2537  3914.9106  3904.4590  3817.2029  3501.5576  2931.3276  2274.8369  1597.7096  1187.6134  1047.9039  1211.6605  1713.0480  2005.8792  2182.6494  2385.6121
0.0000     0.0000     0.0000     0.0000     0.0000     0.0000     0.0000     0.0000     0.0000     0.0000     0.0000     0.0000     0.0000     0.0000     0.0000     0.0000     0.0000     0.0000     0.0000     0.0000     0.0000     0.0000    36.0000   114.0000   241.7836   252.0384   232.7811   110.5000    63.0000    63.0000    12.0000     0.0000     0.0000     0.0000     0.0000     0.0000     0.0000     0.0000     0.0000     0.0000     0.0000     0.0000     0.0000     0.0000     0.0000     0.0000     0.0000     0.0000     0.0000     0.0000     0.0000     0.0000     0.0000     0.0000     0.0000    12.0000    12.0000     0.0000     0.0000     0.0000     0.0000     0.0000     0.0000     0.0000     0.0000     0.0000     0.0000     0.0000     0.0000     0.0000     0.0000     0.0000     0.0000     0.0000     0.0000     0.0000     0.0000     0.0000     0.0000     0.0000     0.0000     0.0000     0.0000     0.0000     0.0000     0.0000    12.0000    13.0000    24.0000    34.0000    44.5000    48.0000    47.0000    66.0000    96.5000   162.0000   270.6236   348.4435   417.0447   470.3285   490.1822   493.2509   494.6769   492.2488   484.1995   468.9904   446.3708   421.4156   396.2238   373.2020   332.7276   237.9787    87.0000     0.0000     0.0000     0.0000     0.0000     0.0000     0.0000     0.0000     0.0000     0.0000     0.0000     0.0000     0.0000   107.5000   161.5000    59.5000    29.0000     0.0000     0.0000     0.0000     0.0000     0.0000     0.0000     0.0000     0.0000     0.0000     0.0000   110.0000   217.8513   240.1522   252.1659   262.7164   269.2711   269.9293   328.3796   367.0333   385.4584   382.7244   441.6898   616.1230   949.3982  1362.4561  1696.8397  1941.2736  2149.4587  2270.2524  2320.0127  2388.4583  2515.2620  2541.5874  2503.2922  2469.4375  2436.3223  2428.6392  2483.1643  2586.5454  2774.8208  3044.7705  3164.0586  3063.1018  3016.4343  3133.0591  3164.6892  3192.5527  3240.8242  3290.6079  3332.1606  3359.9563  3377.9417  3388.3455  3400.5974  3409.3777  3407.9785  3403.7830  3411.7361  3436.4285  3460.7124  3465.2400  3452.1313  3471.3669  3513.2275  3538.3499  3541.6135  3534.3757  3518.8628  3497.4033  3476.1497  3457.8542  3441.1619  3424.6743  3407.0498  3373.0737  3285.5535  3152.2004  3042.5239  2935.9590  2789.6833  2657.2502  2608.3066  2547.2461  2415.0405  2303.5776  2255.8201  2198.7910  2110.7734  2051.8005  2112.8794  2134.3704  2072.6516  2029.2426  2039.6676  2087.7458  2160.6030  2237.7581  2311.6355  2388.5835  2506.1345  2647.6462  2734.3613  2794.5576  2958.0425  3173.1208  3334.5420  3433.9685  3535.2268  3652.3320  3777.3831  3839.1118  3854.2395  3858.3848  3851.0527  3837.2578  3865.6250  3881.8777  3881.3389  3881.9883  3889.4600  3893.9202  3896.7891  3902.7468  3910.0974  3915.4868  3917.7505  3918.2988  3919.8264  3923.2371  3913.7073  3811.7085  3425.3540  2690.3564  1906.6326  1381.7406  1153.6898  1066.8945  1198.9353  1536.5568  1703.5197  1924.9924  2299.9626
0.0000     0.0000     0.0000     0.0000     0.0000     0.0000     0.0000     0.0000     0.0000     0.0000     0.0000     0.0000     0.0000     0.0000     0.0000     0.0000     0.0000     0.0000     0.0000     0.0000     0.0000     0.0000    53.0000   123.0000   252.4679   271.0107   213.8161    83.0000    82.5000    37.0000    35.0833     0.0000     0.0000     0.0000     0.0000     0.0000     0.0000     0.0000     0.0000     0.0000     0.0000     0.0000     0.0000     0.0000     0.0000     0.0000     0.0000     0.0000     0.0000     0.0000     0.0000     0.0000     0.0000     0.0000     0.0000    12.0000    12.0000    14.0000     0.0000     0.0000     0.0000     0.0000     0.0000     0.0000     0.0000     0.0000     0.0000     0.0000     0.0000     0.0000     0.0000     0.0000     0.0000     0.0000     0.0000     0.0000     0.0000     0.0000     0.0000     0.0000     0.0000     0.0000     0.0000     0.0000     0.0000    12.0000    14.0000    12.0000    13.0000     0.0000     0.0000     0.0000     0.0000    12.0000    81.5000   170.0000   255.1577   322.3967   385.0893   446.4961   481.2468   490.3540   491.6570   489.7667   484.9834   476.0009   462.4801   444.8455   425.4031   404.6716   376.2044   321.1292   181.0000     0.0000     0.0000     0.0000     0.0000     0.0000     0.0000     0.0000     0.0000     0.0000    99.0000    81.0000   104.0000   188.0000   168.0000     0.0000     0.0000     0.0000     0.0000     0.0000     0.0000     0.0000     0.0000     0.0000     0.0000     0.0000     0.0000    77.5000   184.0000   207.9361   224.6114   257.7220   279.5809   307.3141   355.2654   388.7381   410.5434   417.5984   467.3119   651.6533  1021.0433  1449.6699  1752.7374  1994.4678  2222.7839  2370.5513  2427.8040  2450.8652  2505.5732  2550.1064  2574.9946  2552.3105  2479.6226  2438.2356  2495.8015  2628.6917  2843.1426  3101.7524  3208.0237  3168.5186  3116.4390  3140.0208  3103.8120  3164.7827  3228.6621  3299.4929  3363.3042  3392.9529  3409.3491  3419.2656  3428.5015  3436.3235  3438.3386  3438.4055  3449.0339  3471.1812  3489.0952  3496.1538  3502.1199  3524.9111  3550.4312  3559.5393  3552.5637  3536.7114  3517.5847  3498.0974  3480.0566  3463.0151  3443.1260  3414.3928  3369.7251  3291.6370  3165.8203  3037.4268  2932.4724  2828.3726  2716.8457  2630.3809  2580.1699  2506.3188  2413.9448  2351.7507  2314.7407  2251.6716  2174.3308  2141.7920  2174.1411  2170.2197  2106.7661  2056.8066  2061.2920  2093.1938  2147.7085  2205.9973  2269.2927  2355.7896  2476.4434  2607.3777  2723.2747  2810.3940  2935.0132  3124.6262  3295.9524  3411.2773  3521.2463  3637.1465  3759.1345  3830.9678  3861.3672  3876.3843  3879.7134  3871.4309  3878.6274  3885.0100  3887.2173  3889.2251  3891.1086  3893.6265  3901.4148  3911.2861  3918.6211  3923.5669  3925.1248  3924.1521  3922.9868  3923.1487  3909.9099  3799.0549  3386.6233  2594.2319  1793.8408  1346.6929  1195.5558  1140.0831  1250.2909  1378.8722  1360.0054  1543.2928  2102.2170
0.0000     0.0000     0.0000     0.0000     0.0000     0.0000     0.0000     0.0000     0.0000     0.0000     0.0000     0.0000     0.0000     0.0000     0.0000     0.0000     0.0000     0.0000     0.0000     0.0000     0.0000    46.5000   150.0000   106.0000   256.9023   264.9761   172.0000    96.5000   116.0000    62.0000    30.0000    12.0000     0.0000     0.0000     0.0000     0.0000     0.0000     0.0000     0.0000     0.0000     0.0000     0.0000     0.0000     0.0000     0.0000     0.0000     0.0000     0.0000     0.0000     0.0000     0.0000     0.0000     0.0000     0.0000     0.0000    12.0000    12.0000    25.0000    12.0000     0.0000     0.0000     0.0000     0.0000     0.0000     0.0000     0.0000     0.0000     0.0000     0.0000     0.0000     0.0000     0.0000     0.0000     0.0000     0.0000     0.0000     0.0000     0.0000     0.0000     0.0000     0.0000     0.0000     0.0000     0.0000     0.0000    12.0000    12.0000     0.0000     0.0000     0.0000     0.0000     0.0000     0.0000     0.0000    64.0000   123.5000   211.5718   284.5291   347.5146   411.6707   463.2375   484.5085   488.1418   487.7144   486.3073   478.5307   468.7482   457.5300   443.0573   427.1579   410.6639   385.5090   310.6684     0.0000     0.0000     0.0000     0.0000     0.0000     0.0000     0.0000     0.0000     0.0000    94.0000   105.0000   137.0000   189.0000   155.0000     0.0000     0.0000     0.0000     0.0000     0.0000     0.0000     0.0000     0.0000     0.0000     0.0000     0.0000     0.0000    23.5000   116.0000   186.0000   223.7274   247.0721   260.7096   292.3087   333.4921   361.6430   390.5766   425.7061   499.3548   698.1493  1071.9803  1501.9448  1813.2004  2050.3271  2272.1726  2441.8804  2524.8909  2525.2864  2507.7688  2511.3860  2580.3550  2594.8142  2534.0774  2481.6021  2532.2759  2683.7175  2911.1321  3129.2783  3202.3313  3194.3298  3173.9155  3143.6680  3077.4788  3123.8894  3166.1951  3268.3491  3375.8972  3420.5645  3442.2668  3456.9226  3467.6125  3476.3962  3483.0752  3490.3438  3502.9302  3516.5093  3522.1428  3524.2861  3535.9182  3561.3452  3579.3857  3577.5112  3559.7761  3534.7476  3512.0569  3493.3481  3477.1021  3462.1362  3439.1428  3390.6387  3302.1650  3175.9924  3039.6897  2930.6633  2825.6770  2712.0889  2605.2639  2558.8030  2530.0857  2468.3281  2405.8953  2349.1304  2288.8472  2201.7292  2125.4282  2123.5718  2176.2375  2184.8613  2137.0579  2087.5063  2098.6582  2135.1885  2171.9561  2203.3650  2250.9583  2339.6477  2425.1409  2458.7048  2576.8884  2766.0776  2925.0974  3066.4092  3181.1104  3263.3323  3356.0686  3493.3230  3654.0562  3770.6509  3833.1157  3865.1189  3879.9399  3881.5320  3881.7485  3883.2981  3885.5232  3889.9404  3890.5117  3896.5261  3913.4495  3925.2644  3929.3184  3932.5977  3933.3748  3930.7334  3925.1458  3917.7905  3899.4526  3769.1360  3299.5037  2517.3491  1827.7106  1397.5516  1263.9365  1211.8147  1265.8123  1247.1447  1114.4863  1249.7218  1865.8925
0.0000     0.0000     0.0000     0.0000     0.0000     0.0000     0.0000     0.0000     0.0000     0.0000     0.0000     0.0000     0.0000     0.0000     0.0000     0.0000     0.0000     0.0000     0.0000     0.0000     0.0000   106.5000   201.3720   229.6387   264.6076   253.9008   128.0000   132.5000   148.5000    62.0000    42.0000    28.0000     0.0000     0.0000     0.0000     0.0000     0.0000     0.0000     0.0000     0.0000     0.0000     0.0000     0.0000     0.0000     0.0000     0.0000     0.0000     0.0000     0.0000     0.0000     0.0000     0.0000     0.0000     0.0000     0.0000    12.0000    19.0000    30.0000    21.0000     0.0000     0.0000     0.0000     0.0000     0.0000     0.0000     0.0000     0.0000     0.0000     0.0000     0.0000     0.0000     0.0000     0.0000     0.0000     0.0000     0.0000     0.0000     0.0000     0.0000     0.0000     0.0000     0.0000     0.0000     0.0000     0.0000    12.0000    12.0000     0.0000     0.0000     0.0000     0.0000     0.0000     0.0000     0.0000    92.5000    93.0000   125.0000   225.9708   292.0228   363.7511   429.5434   468.8583   482.0783   486.6358   488.8037   478.7275   470.3624   465.6631   455.9657   442.3944   428.4039   411.5046   367.7052   266.9632   116.5000     0.0000     0.0000     0.0000     0.0000     0.0000     0.0000   147.0000   111.0000    58.0000    21.0000    14.0000   166.0000   110.0000    90.0000    61.0000    85.0000     0.0000     0.0000     0.0000     0.0000     0.0000     0.0000     0.0000     0.0000    48.0000   106.0000   146.0000   193.0000   194.5000   200.0000   250.3416   275.6792   303.6592   345.5052   401.7813   504.9290   728.7203  1118.3221  1564.7018  1899.9589  2122.7148  2309.3586  2482.8784  2592.6077  2601.4436  2540.8184  2495.7869  2561.1155  2606.0276  2580.1990  2537.1499  2571.4670  2724.3447  2948.5383  3092.3687  3099.2979  3083.6387  3092.4016  3071.0142  3055.3486  3085.2705  3146.7664  3276.3853  3401.5396  3459.3555  3486.2136  3502.7063  3513.3171  3522.1807  3531.6248  3542.8232  3555.5117  3560.9917  3554.4441  3550.3840  3562.5947  3581.1318  3588.7146  3584.8621  3566.1616  3534.1245  3507.2546  3487.1101  3468.4980  3450.1201  3415.3706  3335.6399  3209.1379  3062.3406  2946.3132  2844.1982  2720.8711  2580.1624  2468.7920  2450.0493  2462.1877  2439.0139  2373.5459  2267.1528  2178.7742  2092.3074  2053.7048  2103.8630  2178.2505  2204.9285  2177.1750  2126.2434  2124.2007  2152.3623  2183.1221  2202.1719  2233.3232  2297.7371  2315.9929  2268.4978  2376.5703  2645.8315  2835.5081  2947.3865  3002.4045  3026.5200  3075.4016  3207.2166  3408.4602  3607.8965  3753.9858  3834.4614  3866.4097  3875.5837  3877.9338  3872.2119  3861.5537  3879.9819  3888.4014  3900.5237  3921.1099  3931.0156  3934.0330  3936.4939  3937.4946  3936.5178  3930.9788  3920.4163  3903.3831  3770.3003  3287.8918  2538.9500  1875.6155  1441.8743  1320.1479  1244.2787  1211.3086  1124.1534   997.5443  1134.6674  1744.9781
0.0000     0.0000     0.0000     0.0000     0.0000     0.0000     0.0000     0.0000     0.0000     0.0000     0.0000     0.0000     0.0000     0.0000     0.0000     0.0000     0.0000     0.0000     0.0000     0.0000     0.0000    58.0000    37.5000   233.2266   249.3872   242.7815   111.0000   125.0000    97.5000   107.0000   133.0000     0.0000     0.0000     0.0000     0.0000     0.0000     0.0000     0.0000     0.0000     0.0000     0.0000     0.0000     0.0000     0.0000     0.0000     0.0000     0.0000     0.0000     0.0000     0.0000     0.0000     0.0000     0.0000     0.0000     0.0000    12.0000    15.0000    34.0000    37.0000    18.0000     0.0000     0.0000     0.0000     0.0000     0.0000     0.0000     0.0000     0.0000     0.0000     0.0000     0.0000     0.0000     0.0000     0.0000     0.0000     0.0000     0.0000     0.0000     0.0000     0.0000     0.0000     0.0000     0.0000     0.0000     0.0000     0.0000     0.0000     0.0000     0.0000     0.0000     0.0000     0.0000     0.0000     0.0000    87.0000    64.5000    41.0000   117.0000   226.3402   293.1568   377.5999   434.7994   465.2916   478.9691   485.3238   480.3075   467.9904   466.9486   463.7748   452.9275   438.7791   424.2290   401.7127   344.8072   200.0000     0.0000     0.0000     0.0000     0.0000   145.5000   141.0000   120.0000    51.0000     0.0000     0.0000    66.5000   206.1613   212.3112   185.0000   119.0000    26.0000     0.0000     0.0000     0.0000     0.0000     0.0000     0.0000     0.0000    41.0000   114.0000   138.0000   178.5000   220.8534   227.3391   220.3727   248.8914   252.5303   273.6951   311.4994   372.0810   507.3232   765.3201  1166.5490  1640.5225  1987.3586  2195.2371  2357.8950  2536.3337  2676.5581  2695.0383  2585.8796  2484.5876  2518.2268  2594.1914  2611.7507  2593.5063  2609.5923  2727.8760  2898.3430  2952.6243  2903.9631  2886.2959  2893.7861  2890.2859  2948.0640  3061.5583  3229.6968  3375.4438  3459.4670  3504.8289  3532.8525  3549.6587  3557.3342  3563.5891  3571.8135  3580.4019  3588.2727  3588.2507  3577.9214  3570.4863  3576.0413  3581.6797  3582.1821  3582.3247  3574.4512  3544.3220  3511.7920  3483.5449  3455.0615  3421.8577  3363.1223  3257.8181  3137.9460  2995.4910  2879.1990  2801.0134  2706.4597  2582.0227  2475.0073  2443.1475  2441.3401  2408.9893  2317.1047  2181.7832  2099.2734  2063.7764  2069.8511  2142.6580  2199.9375  2226.6174  2190.0896  2102.5549  2066.1614  2111.6958  2175.6926  2205.5149  2226.2822  2253.8914  2220.1343  2137.6948  2234.3333  2550.1208  2761.3281  2822.4270  2814.2605  2803.7488  2832.6802  2945.4553  3135.4351  3369.0562  3595.9441  3756.3994  3828.7014  3857.6880  3867.7766  3853.9807  3816.0171  3854.9932  3879.3616  3896.0889  3917.9114  3929.3279  3932.7366  3933.5693  3933.1226  3932.1892  3931.6206  3929.7104  3921.9634  3811.9031  3337.4675  2524.9878  1793.1174  1425.6840  1341.6594  1234.3680  1143.7255  1032.7574   945.5746  1118.2518  1758.0569
0.0000     0.0000     0.0000     0.0000     0.0000     0.0000     0.0000     0.0000     0.0000     0.0000     0.0000     0.0000     0.0000     0.0000     0.0000     0.0000     0.0000     0.0000     0.0000     0.0000    35.0000    24.0000   165.5000   248.2529   265.7803   233.8030   122.0000   181.0000    30.5000    68.0000   187.0000     0.0000     0.0000     0.0000     0.0000     0.0000     0.0000     0.0000     0.0000     0.0000     0.0000     0.0000     0.0000     0.0000     0.0000     0.0000     0.0000     0.0000     0.0000     0.0000     0.0000     0.0000     0.0000     0.0000     0.0000    12.0000    12.0000    33.0000    46.0000    42.0000     0.0000     0.0000     0.0000     0.0000     0.0000     0.0000     0.0000     0.0000     0.0000     0.0000     0.0000     0.0000     0.0000     0.0000     0.0000     0.0000     0.0000     0.0000     0.0000     0.0000     0.0000     0.0000     0.0000     0.0000     0.0000     0.0000     0.0000     0.0000     0.0000     0.0000     0.0000     0.0000     0.0000    26.5000    79.0000    32.5000     0.0000     0.0000    46.0000   207.5571   281.9025   356.3566   411.5644   444.7794   466.3507   473.3674   456.1140   457.6279   462.9846   458.6782   447.5471   434.8207   421.7854   397.2662   334.0836   238.1812     0.0000     0.0000   142.0000   162.0000   107.0000    36.0000     0.0000     0.0000     0.0000   188.0000   222.3654   199.0000    24.0000     0.0000     0.0000     0.0000     0.0000     0.0000     0.0000     0.0000     0.0000    26.5000   142.5000   170.0000   163.0000   209.1108   229.2944   252.7016   266.6788   263.2415   267.7487   290.7946   325.3126   396.0844   557.7520   851.8400  1271.4281  1713.2369  2038.7708  2244.1946  2393.3569  2561.4734  2719.1484  2771.7695  2681.2927  2542.1123  2491.3845  2555.2263  2627.1838  2647.1716  2640.9766  2704.3521  2807.7581  2833.1643  2813.7073  2820.7625  2798.6392  2791.9648  2937.2412  3065.4792  3255.0549  3421.3962  3502.9385  3542.1313  3568.4739  3583.1975  3587.3359  3589.5283  3593.1213  3596.3428  3599.0515  3598.1057  3592.9062  3588.8506  3586.8074  3584.7581  3584.5151  3587.5515  3586.2913  3563.3701  3525.0657  3484.0876  3444.8384  3403.1279  3340.5183  3243.6951  3117.5845  2960.4785  2846.0105  2818.4231  2787.4290  2711.0791  2603.5972  2515.7314  2457.5776  2383.7197  2275.8579  2176.4553  2144.2620  2158.3386  2178.0469  2206.1206  2221.7468  2208.7920  2116.0815  2022.0034  2045.8344  2135.6401  2206.8745  2232.5840  2240.3816  2221.4688  2133.6899  2069.9875  2212.3691  2513.9314  2714.6370  2744.1021  2683.1956  2654.3655  2683.7236  2762.7854  2858.3201  3040.3193  3336.4087  3582.1758  3724.8608  3808.9910  3847.3396  3865.6707  3857.9656  3867.1497  3870.9167  3882.0293  3903.5686  3919.4031  3925.5889  3927.1787  3923.8806  3914.1196  3911.8950  3916.6472  3923.3726  3830.1638  3311.5039  2409.8335  1653.4232  1415.8752  1365.2634  1210.1605  1063.4962   940.1420   899.8575  1113.0619  1814.2499
0.0000     0.0000     0.0000     0.0000     0.0000     0.0000     0.0000     0.0000     0.0000     0.0000     0.0000     0.0000     0.0000     0.0000     0.0000     0.0000     0.0000     0.0000     0.0000     0.0000    33.0000    19.5000   188.0000   259.4756   267.1464   178.0000   165.0000   124.0000    12.0000    57.5000   195.0000    85.0000     0.0000     0.0000     0.0000     0.0000     0.0000     0.0000     0.0000     0.0000     0.0000     0.0000     0.0000     0.0000     0.0000     0.0000     0.0000     0.0000     0.0000     0.0000     0.0000     0.0000     0.0000     0.0000     0.0000     0.0000    12.0000    29.5000    53.0000    55.0000    34.0000    12.0000     0.0000     0.0000     0.0000     0.0000     0.0000     0.0000     0.0000     0.0000     0.0000     0.0000     0.0000     0.0000     0.0000     0.0000     0.0000     0.0000     0.0000     0.0000     0.0000     0.0000     0.0000     0.0000     0.0000     0.0000     0.0000     0.0000     0.0000     0.0000     0.0000     0.0000     0.0000    50.0000    71.0000     0.0000     0.0000     0.0000     0.0000     0.0000     0.0000   184.0000   272.0853   331.1088   386.1612   426.2477   430.3145   440.9896   452.8668   456.8234   452.9761   443.2389   432.5276   421.4533   396.7404   333.8057   204.1348   203.1995   207.6136   147.0000    41.0000     0.0000     0.0000     0.0000    61.0000   213.4676   175.5000     0.0000     0.0000     0.0000     0.0000     0.0000     0.0000     0.0000     0.0000     0.0000    12.0000    87.0000   145.0000   183.0000   220.2144   218.0105   223.6283   244.2942   277.8960   291.9503   301.2512   319.6433   362.9038   449.0213   634.4118   977.6674  1418.6992  1777.5441  2061.6299  2270.7078  2398.2786  2534.7825  2700.3115  2822.9280  2805.6516  2646.0632  2491.4937  2491.8235  2636.8552  2737.8215  2699.0889  2655.6111  2699.2783  2767.7795  2832.7385  2839.1169  2763.1582  2823.8066  3085.5986  3120.1279  3190.4814  3389.7268  3513.6240  3558.6094  3580.3413  3590.1113  3594.7158  3595.6277  3596.1843  3598.8621  3602.3362  3603.6326  3602.6550  3601.9023  3599.7690  3597.1907  3596.5234  3597.7727  3595.8818  3577.3850  3534.3794  3483.4316  3441.1667  3409.6003  3373.0369  3281.7375  3102.5083  2937.9646  2844.3630  2839.4729  2832.2073  2785.0488  2697.2998  2593.2642  2498.4172  2397.3521  2282.7915  2208.7593  2205.5010  2235.9888  2270.0076  2275.2488  2237.1616  2127.3789  1969.3140  1967.7085  2120.0703  2228.1687  2266.2854  2267.6804  2240.6868  2150.9670  2007.7671  2009.8765  2228.0632  2479.4880  2622.4133  2657.9429  2624.4531  2593.4783  2575.3911  2535.9929  2505.6631  2619.6077  2943.6584  3255.7712  3487.0979  3675.0691  3762.6641  3789.9417  3838.9932  3858.0750  3846.2466  3842.7517  3861.6025  3882.5364  3898.9136  3907.6252  3904.7615  3894.7769  3891.4761  3899.2173  3921.6443  3848.1125  3321.4490  2324.1897  1542.3689  1423.1387  1407.0769  1209.6035  1006.8461   881.0030   884.7253  1152.0773  1896.9530
0.0000     0.0000     0.0000     0.0000     0.0000     0.0000     0.0000     0.0000     0.0000     0.0000     0.0000     0.0000     0.0000     0.0000     0.0000     0.0000     0.0000     0.0000     0.0000     0.0000    12.0000   112.0000   226.4219   263.7272   259.1784   198.0000   177.0000    90.0000    22.5000   143.0000   194.0000   140.0000     0.0000     0.0000     0.0000     0.0000     0.0000     0.0000     0.0000     0.0000     0.0000     0.0000     0.0000     0.0000     0.0000     0.0000     0.0000     0.0000     0.0000     0.0000     0.0000     0.0000     0.0000     0.0000     0.0000     0.0000     0.0000    18.0000    57.0000    60.0000    56.0000    19.0000     0.0000     0.0000     0.0000     0.0000     0.0000     0.0000     0.0000     0.0000     0.0000     0.0000     0.0000     0.0000     0.0000     0.0000     0.0000     0.0000     0.0000     0.0000     0.0000     0.0000     0.0000     0.0000     0.0000     0.0000     0.0000     0.0000     0.0000     0.0000     0.0000     0.0000     0.0000    89.0000    56.0000     0.0000     0.0000     0.0000     0.0000     0.0000     0.0000     0.0000     0.0000   119.0000   228.6345   306.5224   362.7608   413.5941   441.6728   447.3611   448.0433   444.6663   435.7134   428.7010   417.7634   391.6382   350.4259   322.3869   279.9125   170.0000    15.0000     0.0000     0.0000     0.0000   204.3660   222.8494   103.0000     0.0000     0.0000     0.0000     0.0000     0.0000     0.0000     0.0000     0.0000     0.0000    44.5000   117.0000   128.0000   167.5000   227.1132   220.3425   250.6085   253.9488   271.6252   308.2885   328.6084   349.4078   401.6679   505.7030   717.5162  1091.0154  1523.4170  1819.9319  2079.3684  2298.4492  2420.0203  2536.5217  2692.0239  2857.0273  2894.3303  2720.0051  2507.1140  2461.6538  2652.9016  2866.7419  2818.9534  2600.2795  2566.0388  2722.2268  2883.4873  2817.9685  2682.7371  2905.4380  3229.0596  3213.2969  3205.4563  3393.0854  3520.7561  3561.6340  3575.0618  3583.3220  3593.1240  3593.4536  3593.0464  3599.6719  3608.5049  3613.8040  3614.6348  3614.6833  3614.0408  3612.7241  3611.1768  3609.2869  3604.4072  3585.7109  3536.8813  3476.7241  3440.6692  3423.1787  3385.0740  3259.3733  3067.6455  2955.8684  2901.9087  2879.7148  2859.1655  2818.6924  2751.7944  2657.7732  2540.0862  2410.9875  2272.7166  2220.6123  2261.9050  2314.6472  2360.8875  2368.3140  2267.3315  2033.7423  1892.9756  2000.3029  2207.2944  2295.7480  2304.0120  2283.8674  2207.4172  2042.4303  1875.7738  1917.1688  2172.4285  2387.4062  2450.4934  2451.8228  2459.6060  2484.7456  2485.3923  2388.0574  2292.7219  2334.4775  2541.3962  2818.8745  3073.5627  3332.6301  3454.6895  3469.0571  3612.9343  3721.5061  3735.1294  3711.8887  3693.8372  3704.2698  3763.3994  3819.8645  3845.6174  3858.3591  3873.7788  3888.1357  3905.9141  3811.9233  3232.0933  2130.8962  1397.8807  1377.7991  1423.1978  1216.5940   959.0425   846.6935   896.3254  1223.9208  1976.4551
0.0000     0.0000     0.0000     0.0000     0.0000     0.0000     0.0000     0.0000     0.0000     0.0000     0.0000     0.0000     0.0000     0.0000     0.0000     0.0000     0.0000     0.0000     0.0000     0.0000     0.0000   117.0000   231.8573   256.2881   242.3149   152.0000   125.0000    83.0000     0.0000    83.0000   198.5000   124.5000     0.0000     0.0000     0.0000     0.0000     0.0000     0.0000     0.0000     0.0000     0.0000     0.0000     0.0000     0.0000     0.0000     0.0000     0.0000     0.0000     0.0000     0.0000     0.0000     0.0000     0.0000     0.0000     0.0000     0.0000     0.0000    18.0000    54.0000    64.0000    71.0000    52.0000     0.0000     0.0000     0.0000     0.0000     0.0000     0.0000     0.0000     0.0000     0.0000     0.0000     0.0000     0.0000     0.0000     0.0000     0.0000     0.0000     0.0000     0.0000     0.0000     0.0000     0.0000     0.0000     0.0000     0.0000     0.0000     0.0000     0.0000     0.0000     0.0000     0.0000     0.0000    77.0000    58.0000     0.0000     0.0000     0.0000     0.0000     0.0000     0.0000     0.0000     0.0000     0.0000     0.0000   132.5000   236.7775   358.1739   429.2958   438.3022   436.4996   437.7539   432.3973   428.6459   422.1413   407.5359   386.8263   370.7845   347.6495   279.6477    70.5000     0.0000     0.0000    97.0000   211.5442   125.0000   142.0000     0.0000     0.0000     0.0000     0.0000     0.0000     0.0000     0.0000     0.0000    23.0000   106.0000   132.0000   139.0000   176.5000   219.4397   249.1749   268.9804   273.5442   283.4138   323.7691   349.4321   383.4100   456.0387   594.1163   852.4958  1225.5093  1606.1769  1845.6302  2074.2842  2316.3440  2480.3523  2621.4739  2760.9595  2899.6399  2942.6829  2786.6313  2560.9158  2480.7646  2690.3281  2989.0833  2945.6611  2607.4629  2584.2800  2814.3574  2931.0178  2719.8328  2643.3359  3058.3352  3328.2180  3274.7900  3328.0061  3478.3977  3555.2961  3578.5891  3583.5276  3589.0142  3598.4861  3595.6658  3596.7300  3608.3506  3622.0605  3628.2256  3627.7532  3627.6182  3628.5488  3628.3997  3626.4644  3622.3899  3614.3330  3593.2773  3539.3176  3469.9890  3449.7344  3448.5244  3394.8567  3245.3918  3084.8811  3013.1653  2971.9431  2934.2161  2901.2188  2857.8159  2785.6294  2672.7214  2534.4229  2442.7749  2325.5442  2294.9268  2365.1484  2424.3066  2447.7349  2429.5481  2257.6741  1966.5106  1903.8226  2073.6392  2251.3669  2308.9199  2307.8513  2278.5818  2173.5996  1984.5558  1824.5530  1862.8481  2099.4465  2247.6287  2212.7888  2146.8801  2140.3098  2209.3828  2324.6682  2359.5308  2298.4470  2312.9211  2429.4189  2603.4067  2727.5728  2817.5723  2907.1440  2996.1038  3160.9219  3333.6558  3401.3308  3375.4443  3268.1230  3243.9646  3384.8721  3577.0142  3720.7107  3801.0869  3851.1790  3875.8662  3875.0232  3677.6379  2896.5508  1815.3660  1255.5858  1314.9817  1399.9652  1199.0624   915.2800   826.4905   907.6490  1260.4290  1992.1971
0.0000     0.0000     0.0000     0.0000     0.0000     0.0000     0.0000     0.0000     0.0000     0.0000     0.0000     0.0000     0.0000     0.0000     0.0000     0.0000     0.0000     0.0000     0.0000     0.0000     0.0000   122.0000   235.4568   255.2604   230.3919    88.0000   153.5000    15.5000    12.0000    84.0000   185.0000   147.0000     0.0000     0.0000     0.0000     0.0000     0.0000     0.0000     0.0000     0.0000     0.0000     0.0000     0.0000     0.0000     0.0000     0.0000     0.0000     0.0000     0.0000     0.0000     0.0000     0.0000     0.0000     0.0000     0.0000     0.0000     0.0000    14.0000    44.0000    67.5000    87.0000    95.0000    40.0000     0.0000     0.0000     0.0000     0.0000     0.0000     0.0000     0.0000     0.0000     0.0000     0.0000     0.0000     0.0000     0.0000     0.0000     0.0000     0.0000     0.0000     0.0000     0.0000     0.0000     0.0000     0.0000     0.0000     0.0000     0.0000     0.0000     0.0000     0.0000     0.0000     0.0000    87.0000    62.0000     0.0000     0.0000     0.0000     0.0000     0.0000     0.0000     0.0000     0.0000     0.0000     0.0000     0.0000    79.0000   291.1656   410.5722   433.5120   426.5331   425.3255   424.4475   423.5550   420.1055   409.5710   394.0237   386.6859   388.0251   369.0208   284.5640    77.5000    65.0000   201.1579   162.0000     0.0000     0.0000     0.0000     0.0000     0.0000     0.0000     0.0000     0.0000     0.0000    12.0000    54.0000   151.0000   170.0000   201.7128   200.0000   204.7993   261.5220   279.2749   283.7492   304.3093   344.4585   374.1295   427.2214   543.9255   746.1699  1058.6405  1430.8464  1731.8292  1914.2159  2094.5200  2313.0649  2508.2517  2704.8318  2858.8591  2970.0627  3010.5408  2906.0342  2697.0178  2566.5549  2739.0586  3056.0017  3050.5308  2725.4307  2738.5928  2981.4377  2966.8452  2657.5730  2729.4065  3215.8162  3395.9568  3312.9912  3410.6240  3525.1714  3573.1785  3592.3667  3599.0896  3604.4797  3610.1252  3609.6982  3615.8525  3627.4031  3639.4426  3638.8550  3635.8999  3637.2266  3640.9512  3642.0754  3640.5935  3636.1951  3627.0408  3607.4272  3560.7451  3495.1123  3481.8425  3471.7217  3403.7085  3276.4592  3134.5945  3050.8105  3003.1475  2972.3186  2945.4536  2896.7122  2792.9343  2629.9246  2496.3850  2532.0876  2505.5176  2477.0420  2500.7651  2514.9329  2500.5007  2422.7415  2190.7373  1978.3661  2026.5024  2188.5894  2286.6511  2300.6562  2297.3286  2272.7180  2181.9978  2003.2374  1849.6345  1870.8486  2057.1064  2140.1277  2058.2683  1958.9999  1931.9941  1975.9910  2088.2429  2238.2527  2316.5862  2342.2932  2359.2249  2450.0378  2551.0859  2512.1477  2506.9773  2628.4502  2737.3557  2812.5874  2839.3928  2829.3008  2769.1096  2799.2681  2991.4277  3287.4492  3552.0581  3708.2988  3793.2551  3848.1714  3852.0540  3566.0042  2586.9573  1534.3771  1186.9203  1357.5710  1409.6542  1175.9957   884.4421   807.1382   907.7142  1265.9661  1964.2023
0.0000     0.0000     0.0000     0.0000     0.0000     0.0000     0.0000     0.0000     0.0000     0.0000     0.0000     0.0000     0.0000     0.0000     0.0000     0.0000     0.0000     0.0000     0.0000     0.0000     0.0000    74.5000   229.9109   245.5730   235.9603   112.5000   184.5000    52.0000    12.0000   156.0000   187.0000   151.0000    20.0000     0.0000     0.0000     0.0000     0.0000     0.0000     0.0000     0.0000     0.0000     0.0000     0.0000     0.0000     0.0000     0.0000     0.0000     0.0000     0.0000     0.0000     0.0000     0.0000     0.0000     0.0000     0.0000     0.0000     0.0000    12.0000    36.0000    67.0000    95.0000   109.0000    37.5000     0.0000     0.0000     0.0000     0.0000     0.0000     0.0000     0.0000     0.0000     0.0000     0.0000     0.0000     0.0000     0.0000     0.0000     0.0000     0.0000     0.0000     0.0000     0.0000     0.0000     0.0000     0.0000     0.0000     0.0000     0.0000     0.0000     0.0000     0.0000     0.0000    41.0000   115.0000     0.0000     0.0000     0.0000     0.0000     0.0000     0.0000     0.0000     0.0000     0.0000     0.0000     0.0000     0.0000     0.0000   230.3548   379.5705   425.8473   419.0451   412.5717   415.7971   418.2953   416.1334   408.3461   397.3380   395.3352   403.9118   406.5209   375.8602   309.5825   257.7574   227.8562   118.5000     0.0000     0.0000     0.0000     0.0000     0.0000     0.0000     0.0000     0.0000     0.0000    12.0000    54.5000   139.5000   195.0000   216.4295   234.0452   232.7836   260.3550   280.2306   297.1770   338.2256   379.0197   420.2331   501.0268   678.8029   956.8019  1292.8464  1626.5955  1884.1627  2063.3127  2237.5557  2423.7078  2604.6230  2785.1565  2929.7554  3029.3342  3085.7273  3045.6641  2880.0906  2726.6028  2825.3149  3097.3933  3141.3066  2897.8809  2840.4402  3082.1992  3052.0557  2809.9465  2935.8728  3312.0117  3431.8970  3376.0989  3451.5898  3526.0452  3569.3701  3596.7634  3610.8821  3619.8694  3626.5166  3630.9907  3638.4753  3646.4539  3649.0754  3638.8076  3635.9167  3637.9294  3645.4182  3649.0588  3650.0623  3647.5007  3639.7568  3624.9131  3597.8955  3560.3135  3534.9402  3492.7009  3420.2209  3309.7290  3143.1487  3050.0347  3010.5928  2993.1206  2965.8274  2901.2742  2780.9500  2604.4724  2483.8000  2619.9856  2691.9131  2659.2793  2581.1948  2555.5281  2541.1545  2413.5693  2154.1250  2095.3206  2237.1726  2317.5012  2306.5256  2278.4500  2288.5637  2264.6880  2184.3286  2056.8838  1950.8638  1946.8218  2052.4351  2104.3386  2034.9176  1916.2500  1857.3260  1860.2001  1916.9425  2028.2434  2154.3359  2204.1553  2100.9719  2143.2664  2417.7971  2528.0334  2456.1619  2442.2197  2454.8909  2474.2869  2491.3936  2509.9062  2553.2148  2654.4678  2844.3447  3126.1333  3374.7842  3515.6956  3641.6606  3769.5471  3812.9521  3475.8276  2380.8669  1407.1241  1229.3829  1518.4392  1512.1459  1186.4685   862.8354   778.7399   918.5001  1335.7622  1963.9600
0.0000     0.0000     0.0000     0.0000     0.0000     0.0000     0.0000     0.0000     0.0000     0.0000     0.0000     0.0000     0.0000     0.0000     0.0000     0.0000     0.0000     0.0000     0.0000     0.0000     0.0000    60.0000   224.5378   242.2450   223.1188   101.0000   188.0000    64.0000    48.0000   197.0000   207.2700   161.0000    43.0000     0.0000     0.0000     0.0000     0.0000     0.0000     0.0000     0.0000     0.0000     0.0000     0.0000     0.0000     0.0000     0.0000     0.0000     0.0000     0.0000     0.0000     0.0000     0.0000     0.0000     0.0000     0.0000     0.0000     0.0000     0.0000    16.0000    69.0000    95.0000   114.0000    51.0000     0.0000     0.0000     0.0000     0.0000     0.0000     0.0000     0.0000     0.0000     0.0000     0.0000     0.0000     0.0000     0.0000     0.0000     0.0000     0.0000     0.0000     0.0000     0.0000     0.0000     0.0000     0.0000     0.0000     0.0000     0.0000     0.0000     0.0000     0.0000     0.0000   111.0000    96.5000     0.0000     0.0000     0.0000     0.0000     0.0000     0.0000     0.0000     0.0000     0.0000     0.0000     0.0000     0.0000     0.0000   148.5000   356.1664   420.0092   419.5636   408.4889   407.6145   411.3561   409.0090   404.3757   400.0548   402.8193   411.0959   415.4554   407.2958   379.1772   330.7827   260.0327    85.0000     0.0000     0.0000     0.0000     0.0000     0.0000     0.0000     0.0000     0.0000    12.0000    23.0000    64.0000   136.0000   184.0000   222.6362   237.4549   261.3434   276.8954   294.1586   331.4475   386.8268   437.0159   493.6167   607.5099   848.2402  1182.7091  1511.4230  1785.1837  2023.2632  2220.2773  2395.1016  2557.1208  2717.0828  2860.6875  2975.2073  3066.6836  3140.1802  3153.5706  3069.1687  2968.7793  3020.9146  3184.1680  3214.8328  3070.1958  3001.0552  3177.2522  3162.2319  3051.2876  3139.5027  3355.8835  3434.1294  3437.8589  3482.4824  3521.7957  3566.3691  3600.9329  3620.8384  3633.3008  3641.6282  3647.6570  3652.8015  3655.8782  3653.9014  3644.0537  3634.5200  3628.2649  3641.0054  3651.5356  3657.1609  3655.6797  3649.6619  3638.2905  3619.3774  3593.9387  3557.7969  3494.5801  3421.1572  3323.2168  3176.4785  3082.7449  3030.0945  2999.9600  2936.5132  2848.8213  2779.1719  2672.7659  2553.7678  2654.0779  2769.2322  2703.7908  2510.1643  2505.4292  2550.0757  2463.5229  2325.4958  2348.1445  2390.4590  2329.2957  2240.9204  2233.7214  2279.4895  2235.2947  2128.6921  2061.6477  2016.2794  1987.7295  2032.0636  2093.1182  2061.5068  1938.5790  1845.0448  1810.5581  1834.4446  1889.1488  1977.8307  2013.2498  1942.9169  1976.4178  2280.5261  2597.2183  2635.9177  2560.5552  2532.8569  2525.8733  2523.7637  2535.5530  2581.8545  2633.6396  2731.8232  2943.0183  3158.4834  3313.6633  3479.2930  3657.3845  3757.8474  3458.9099  2430.0266  1526.6544  1412.0536  1741.2902  1674.9879  1239.0201   854.8129   760.4836   950.6772  1441.4335  1944.6523
